# .PCD v0.7 - Point Cloud Data file format
VERSION 0.7
FIELDS x y z intensity
SIZE 4 4 4 4
TYPE F F F F
COUNT 1 1 1 1
WIDTH 1155
HEIGHT 1
VIEWPOINT 0 0 0 1 0 0 0
POINTS 1155
DATA ascii
-20.444366 -48.561649 45.521698 45.521698
5.8119049 -72.04229 29.994804 29.994804
12.65683 -70.471954 25.199867 25.199867
-69.797089 10.714722 26.953217 26.953217
-15.447685 -94.23159 32.762939 32.762939
-32.84903 -88.766663 40.570358 40.570358
-90.33979 -78.272446 37.025108 37.025108
6.4266357 -60.498657 31.88903 31.88903
-50.813675 -60.418839 49.452431 49.452431
-11.151535 -7.6041718 31.813141 31.813141
-26.750031 -36.129124 46.265457 46.265457
-0.30944061 -91.4804 26.224831 26.224831
-19.040276 -23.902908 41.435425 41.435425
6.882225 30.621231 -33.732552 -33.732552
-69.043221 -13.897415 41.29052 41.29052
-37.147449 32.549622 4.9579124 4.9579124
9.7355118 -33.019951 28.379501 28.379501
10.467422 -13.920044 21.006531 21.006531
-2.299736 15.586937 8.5067368 8.5067368
-90.270241 -10.905289 32.764191 32.764191
-36.879211 -25.009514 45.933937 45.933937
-64.814835 8.6911316 29.59819 29.59819
-23.749733 -39.872124 45.960144 45.960144
36.670975 -75.777512 -7.2956429 -7.2956429
34.416779 -48.302124 3.5810127 3.5810127
-32.796875 -25.954887 45.529495 45.529495
29.165253 -0.076828003 -14.778698 -14.778698
-27.861725 -61.669701 46.817947 46.817947
9.9879379 -50.732201 30.005692 30.005692
-68.293381 45.778473 -27.822603 -27.822603
-59.323868 -97.611397 37.442665 37.442665
-23.666306 -91.977608 36.858604 36.858604
-68.225471 26.847603 11.33741 11.33741
10.358337 -61.883354 28.839439 28.839439
-20.365417 -15.958496 39.235466 39.235466
-49.808323 -41.029476 49.596649 49.596649
1.802002 -58.43206 35.120224 35.120224
-63.547546 19.988121 20.129356 20.129356
4.9577332 -84.542145 26.06897 26.06897
-48.361927 29.383377 10.791416 10.791416
9.8961792 12.21714 0.41304398 0.41304398
-7.6912079 -9.8581467 31.23175 31.23175
-19.172997 27.80529 4.7360268 4.7360268
23.134674 -69.239197 15.430672 15.430672
-67.15004 10.652672 27.63459 27.63459
-7.647522 -68.429672 38.693939 38.693939
-3.8594284 21.164772 2.9775696 2.9775696
-22.96862 -8.1868744 36.723511 36.723511
-1.2007675 -88.227051 28.468643 28.468643
-79.110298 -31.181595 43.800095 43.800095
31.894989 -30.223366 3.8711014 3.8711014
-86.647316 -61.457962 42.334663 42.334663
-30.945442 -40.021538 47.659378 47.659378
-47.362114 -46.321808 49.897514 49.897514
-13.800705 25.418922 4.7868385 4.7868385
-75.574203 11.041 24.96637 24.96637
-97.650833 -82.959396 31.505066 31.505066
10.75927 13.142952 -1.8203545 -1.8203545
-26.037788 -73.381622 44.229042 44.229042
-21.15081 -99.056068 32.226677 32.226677
-14.003311 39.243149 -22.798925 -22.798925
6.9533005 -79.013268 26.90612 26.90612
21.765533 -36.138767 18.246422 18.246422
17.94883 12.784302 -12.038338 -12.038338
-94.62027 -43.379337 39.247963 39.247963
28.425278 -67.575577 9.5027275 9.5027275
-52.024677 -82.304825 44.616585 44.616585
-83.011932 -99.609703 30.306229 30.306229
9.8329544 -91.786621 18.365898 18.365898
-50.09309 -2.6044922 38.054855 38.054855
-42.609173 -2.7824249 37.840057 37.840057
-99.164825 -74.626434 33.524597 33.524597
2.0088425 -89.516823 25.719887 25.719887
-14.976707 -57.082088 43.39814 43.39814
-25.767044 -29.874405 44.909035 44.909035
-43.011047 -41.171883 49.364075 49.364075
-45.923149 -8.9567108 41.0979 41.0979
-83.351952 -16.071198 37.957283 37.957283
-46.01445 -49.089005 49.916389 49.916389
-56.174374 8.7494965 30.68689 30.68689
-16.527496 -42.684971 43.947227 43.947227
-64.534698 45.524521 -24.235537 -24.235537
-36.207039 33.830215 2.7470322 2.7470322
-77.710426 -88.385498 38.083405 38.083405
-18.335136 -43.165253 44.607735 44.607735
-93.002907 9.199295 18.162994 18.162994
-58.885498 -59.040291 49.193352 49.193352
-34.249626 -9.7809448 40.190651 40.190651
-31.724083 23.175224 15.661079 15.661079
-25.996964 -11.988983 39.32534 39.32534
-3.4432144 -98.86554 23.787704 23.787704
20.266899 -4.4044876 4.6224518 4.6224518
-74.148781 34.980499 -3.1475563 -3.1475563
-48.112411 -81.950951 44.73951 44.73951
-65.401001 11.608269 27.247849 27.247849
-37.390945 -23.118011 45.490158 45.490158
14.996384 -33.272133 24.132637 24.132637
-91.49054 33.726746 -14.385857 -14.385857
-30.005409 -9.9266281 39.411079 39.411079
-66.506012 -87.492813 41.224121 41.224121
-21.420082 7.8086166 26.428741 26.428741
-48.977589 32.370224 6.6930389 6.6930389
-43.154419 43.504959 -15.215523 -15.215523
34.296631 -77.071396 -3.5111008 -3.5111008
-47.151691 -14.593987 43.478882 43.478882
-29.905991 -14.977547 41.48584 41.48584
-33.709145 -7.6861954 39.129959 39.129959
-36.315971 -21.063309 44.73867 44.73867
-27.742134 -75.570564 44.078339 44.078339
-38.767368 -26.452026 46.536629 46.536629
4.7976227 8.4729691 9.8174934 9.8174934
-66.499268 -66.582047 47.225563 47.225563
-11.787704 -17.989799 36.690063 36.690063
-56.272209 39.452957 -5.7413559 -5.7413559
4.3400879 -11.295906 24.492607 24.492607
-90.76828 -89.090675 32.521912 32.521912
-85.373062 -77.127365 39.514542 39.514542
33.56897 -17.158615 -5.9810181 -5.9810181
-43.699085 -49.910122 49.801254 49.801254
-91.027176 -35.312561 40.005829 40.005829
-65.353294 13.583221 25.640266 25.640266
-57.011959 43.800537 -16.054588 -16.054588
-69.763397 -74.281097 44.972816 44.972816
4.3330917 -72.301971 30.935387 30.935387
-65.30014 -54.771389 48.707344 48.707344
-38.079865 -31.694565 47.584946 47.584946
-6.4726257 -3.5426941 27.117355 27.117355
-90.49263 -50.221619 41.434662 41.434662
-36.01123 40.882996 -10.698654 -10.698654
27.616371 -52.598923 12.999557 12.999557
18.128052 -46.044765 23.095306 23.095306
11.77243 2.1238098 8.8835754 8.8835754
-54.459103 -47.412445 49.86702 49.86702
-60.316525 -26.907173 46.748596 46.748596
-91.949066 -32.756821 39.123222 39.123222
-59.439575 31.311142 7.4403381 7.4403381
-33.862396 13.882111 25.224022 25.224022
-95.762993 -62.156998 38.079262 38.079262
-22.515091 -27.497231 43.478371 43.478371
35.963455 -48.567677 1.070858 1.070858
-27.69799 19.620468 18.232033 18.232033
-74.371368 26.518501 9.5898895 9.5898895
26.661179 -1.5327835 -7.8812141 -7.8812141
-7.0309982 -33.188522 38.71888 38.71888
10.02121 -44.190044 29.772797 29.772797
-11.881126 14.578613 16.155525 16.155525
22.135651 -47.732441 19.219261 19.219261
-62.535645 -27.010406 46.510811 46.510811
-35.949364 28.597244 10.208412 10.208412
-55.03722 8.0379257 31.278694 31.278694
-38.936348 2.1311035 34.616455 34.616455
-33.524467 -96.526741 36.970222 36.970222
41.309616 -45.097977 -9.5213203 -9.5213203
5.8283691 -80.424225 27.185226 27.185226
-2.6343842 -61.175365 37.359085 37.359085
-25.067184 -71.421455 44.442978 44.442978
-62.727337 19.655678 20.612335 20.612335
-53.475147 38.426498 -3.4309349 -3.4309349
-17.174492 -91.933586 34.64077 34.64077
-29.694229 -56.511459 47.699928 47.699928
28.757431 -84.89212 0.79180145 0.79180145
-87.22921 -5.9293976 31.680893 31.680893
-71.691231 -45.541428 47.517235 47.517235
-41.768585 14.646187 25.849289 25.849289
23.901009 -78.791046 10.907444 10.907444
38.037262 -6.1828232 -31.848 -31.848
7.2821121 -86.826591 23.229515 23.229515
-48.579903 -98.973122 37.175781 37.175781
-7.7499542 4.3454132 22.536263 22.536263
-96.245842 20.766891 3.416935 3.416935
17.478584 -69.433441 21.196785 21.196785
-75.488075 33.307571 -0.906147 -0.906147
-81.492218 -97.062225 32.422005 32.422005
-5.9506073 22.678352 2.7020683 2.7020683
2.9162064 31.822556 -27.529034 -27.529034
-74.668167 5.0258255 29.772423 29.772423
-7.1463547 -23.969147 36.521439 36.521439
-83.316498 -28.122185 41.713531 41.713531
35.036224 -78.746925 -5.926712 -5.926712
-54.139519 16.087807 24.935081 24.935081
-91.649696 -49.229622 40.910446 40.910446
-73.212677 39.697723 -12.376999 -12.376999
-27.548996 -22.607452 43.517914 43.517914
-69.173874 -82.355713 42.657814 42.657814
-91.268379 -42.357929 40.766289 40.766289
5.3254089 -82.44706 26.722145 26.722145
3.8526306 -98.094597 19.186729 19.186729
-24.933685 22.07711 14.626389 14.626389
-87.243645 8.0270538 22.427704 22.427704
-43.719566 45.781891 -21.957447 -21.957447
-17.463577 -23.662979 40.817078 40.817078
0.9040451 -79.220848 30.962463 30.962463
-44.436092 -90.723396 41.162758 41.162758
-19.644478 11.875496 22.456642 22.456642
-2.0699463 -83.132355 31.270889 31.270889
-9.7987976 -19.087608 36.187508 36.187508
31.39563 -21.283684 0.49875641 0.49875641
-31.521744 26.468132 11.734749 11.734749
-9.8193207 40.7957 -38.098179 -38.098179
42.400284 -86.253212 -37.83889 -37.83889
-44.02269 -31.83075 48.153709 48.153709
24.860474 4.2304306 -11.855934 -11.855934
-96.518097 -92.037422 27.903282 27.903282
-40.843517 11.681152 28.176689 28.176689
-71.890228 -26.281601 44.648064 44.648064
-62.421982 42.949905 -15.27235 -15.27235
-78.110275 -99.544121 32.18998 32.18998
-48.127968 -8.1381912 40.796936 40.796936
-36.237316 36.7565 -2.2098541 -2.2098541
-52.734421 -17.772125 44.624977 44.624977
-56.997715 -27.197861 47.113823 47.113823
-78.620232 -12.15168 38.024918 38.024918
40.61554 -30.524269 -12.456417 -12.456417
21.155251 -82.187454 12.457169 12.457169
36.772888 -40.904648 -1.1354904 -1.1354904
-46.94352 31.428757 7.9656372 7.9656372
13.207199 26.29895 -36.460419 -36.460419
-94.539703 -97.143982 26.116096 26.116096
12.010048 -54.903107 28.298874 28.298874
-96.338837 25.517014 -3.6330643 -3.6330643
34.740982 -75.181816 -3.2577095 -3.2577095
14.146065 -83.460083 19.034088 19.034088
17.443237 7.0057068 -3.0770988 -3.0770988
-11.0336 -89.542503 33.174576 33.174576
-7.2475128 0.35412598 25.077873 25.077873
36.597534 -41.459129 -0.72606277 -0.72606277
-62.784061 -97.655968 36.979752 36.979752
-88.442642 -20.639893 37.52227 37.52227
24.09922 -57.809795 16.695671 16.695671
-16.267052 -76.471947 40.34005 40.34005
-33.208618 -23.242691 44.879372 44.879372
1.0195465 -28.35508 33.237633 33.237633
3.6697769 -78.43866 29.440529 29.440529
-72.748001 -9.1679459 38.40403 38.40403
9.713913 -86.750877 21.299522 21.299522
-89.590004 27.156845 -0.20589447 -0.20589447
-36.283756 -15.559113 42.874588 42.874588
-79.954117 -85.516289 38.551369 38.551369
-94.158127 -28.590714 37.130371 37.130371
44.837997 -78.715874 -36.540714 -36.540714
-31.592957 -1.4169693 35.445129 35.445129
-18.1353 -60.723797 44.178772 44.178772
-39.234615 48.703079 -38.09166 -38.09166
2.8938675 -21.776215 30.035347 30.035347
27.720322 4.1534653 -17.953876 -17.953876
-49.729645 18.154861 23.176788 23.176788
-24.022636 -92.306816 36.80616 36.80616
-85.801987 -84.800674 36.6437 36.6437
-58.095943 -92.72049 40.052292 40.052292
13.620781 -0.37124634 9.0709991 9.0709991
-88.200104 39.539505 -27.121414 -27.121414
-49.83461 -59.012066 49.592949 49.592949
24.400162 -52.598503 16.767235 16.767235
-99.366966 -91.937851 26.184769 26.184769
-24.495514 -47.877247 46.669617 46.669617
-45.316048 -53.512962 49.828453 49.828453
-93.18869 -83.005585 33.936691 33.936691
-1.0677948 9.0258636 14.199585 14.199585
-77.851059 8.4173813 26.234688 26.234688
-93.278503 -92.091293 29.7201 29.7201
-54.218613 33.101257 5.4651642 5.4651642
10.033752 -23.57132 25.481606 25.481606
-57.550449 29.076797 10.744141 10.744141
-12.357674 -26.297882 39.561516 39.561516
-5.5715714 -75.544952 35.869499 35.869499
-34.940224 -62.16008 48.108795 48.108795
-79.22242 -98.021912 32.703964 32.703964
-81.263092 24.385681 9.0710564 9.0710564
2.4245529 -78.825905 30.129478 30.129478
-26.293655 44.101471 -25.856224 -25.856224
17.84742 -60.287247 22.738571 22.738571
-64.193283 -69.610321 47.025696 47.025696
-81.657127 -21.297119 40.410011 40.410011
-84.741089 8.065033 23.630898 23.630898
-12.010178 -31.685219 40.671616 40.671616
13.978363 -90.633789 15.235451 15.235451
-68.616127 -25.37645 45.116356 45.116356
-52.297001 -57.326733 49.704781 49.704781
-85.47937 -47.431763 43.459183 43.459183
-11.590965 -26.501373 39.2892 39.2892
20.829895 -85.438171 11.051304 11.051304
-89.872055 3.5915604 24.418839 24.418839
-86.415115 -55.448528 42.974472 42.974472
-77.868584 12.758659 22.695892 22.695892
-90.479988 -10.638199 32.534958 32.534958
-45.664059 -94.832649 39.281761 39.281761
-58.71542 7.7870102 31.146187 31.146187
-51.534042 -67.88475 48.375717 48.375717
-92.116745 -0.85309601 26.228355 26.228355
27.123627 4.0196304 -16.327663 -16.327663
-91.06353 -39.584152 40.583092 40.583092
-29.786743 -35.803703 46.901443 46.901443
33.647995 -93.833092 -17.111206 -17.111206
-93.848991 -72.284454 37.067039 37.067039
27.142357 -37.017941 12.293842 12.293842
27.561821 5.0200729 -19.06531 -19.06531
18.397774 -13.133125 12.949013 12.949013
44.160538 -55.408527 -16.765366 -16.765366
-44.119919 -58.801582 49.43821 49.43821
-43.031738 -53.011017 49.711472 49.711472
-35.039986 -95.491295 37.78804 37.78804
-9.4844208 21.219505 7.3259964 7.3259964
28.0737 -64.992676 10.660675 10.660675
-83.641685 -72.96801 41.327469 41.327469
-97.263397 -51.839497 38.106682 38.106682
26.114464 -26.811371 10.571247 10.571247
38.061462 -64.743851 -4.9689293 -4.9689293
-28.232941 -86.175125 40.650734 40.650734
-19.23056 -74.639847 41.902771 41.902771
35.044205 -17.38913 -8.7202873 -8.7202873
-41.961342 -8.6181641 40.680336 40.680336
-64.530869 -29.686188 46.830795 46.830795
-52.981831 7.6428528 31.660332 31.660332
5.1385498 25.397964 -14.294445 -14.294445
6.5508499 -51.765285 32.455353 32.455353
-16.060066 -37.470894 43.226082 43.226082
-3.3052063 -54.708652 38.303032 38.303032
32.454712 -20.896866 -1.4796066 -1.4796066
23.791206 -82.903748 8.9253883 8.9253883
-11.882645 26.771286 1.5095787 1.5095787
-68.800529 16.209114 22.545799 22.545799
-89.257652 -82.485916 36.043602 36.043602
31.486618 1.1518097 -22.7342 -22.7342
40.380356 -66.048378 -10.328339 -10.328339
-7.315712 -68.429398 38.53479 38.53479
35.520416 -80.613564 -8.1781349 -8.1781349
9.6309509 -31.089424 28.016281 28.016281
32.304688 -79.857613 -1.6837349 -1.6837349
26.364113 -23.682022 8.9566498 8.9566498
-13.039886 -9.1854706 33.475288 33.475288
-84.036362 -94.928276 32.601311 32.601311
12.78894 -1.1119308 10.559937 10.559937
41.290405 -71.929886 -15.574116 -15.574116
-7.5338898 -75.198151 36.957939 36.957939
-51.746254 -27.88739 47.508888 47.508888
-39.357353 -54.90667 49.310913 49.310913
-96.828072 -7.4662781 27.446846 27.446846
-53.35582 -3.5772629 38.508011 38.508011
-38.086529 44.464966 -19.431398 -19.431398
-46.178799 41.343658 -9.481678 -9.481678
16.844467 -13.353012 14.721062 14.721062
0.72080994 29.150803 -15.903816 -15.903816
-86.862 9.7675552 21.197136 21.197136
-54.95602 17.098465 23.981308 23.981308
29.958099 -84.794838 -1.050827 -1.050827
11.195847 -47.116566 29.036407 29.036407
-27.14061 -23.464554 43.665993 43.665993
-27.523468 -47.564514 47.410851 47.410851
-41.703575 -45.576649 49.557037 49.557037
10.914299 15.8293 -5.7738571 -5.7738571
-30.337852 -5.9684677 37.604935 37.604935
29.516113 -90.177704 -4.5804062 -4.5804062
-33.674385 -77.178368 44.840973 44.840973
-34.129822 -56.59594 48.512085 48.512085
-48.861439 15.978859 25.136497 25.136497
14.190796 -71.429207 23.622894 23.622894
-69.807457 31.247025 4.8323402 4.8323402
-84.22818 -6.7732315 33.42588 33.42588
38.209396 -95.13121 -36.499023 -36.499023
-1.709343 14.50248 9.2236633 9.2236633
-33.948067 -93.605042 38.549057 38.549057
-10.550842 -31.486282 40.005585 40.005585
-38.858021 -48.64077 49.36805 49.36805
43.205963 -75.477203 -24.240332 -24.240332
-24.910965 -96.85154 34.708168 34.708168
-14.43766 -30.646774 41.437263 41.437263
-37.205063 18.689667 21.540329 21.540329
-89.733673 -30.449684 39.660583 39.660583
-76.75177 -30.610168 44.384201 44.384201
-98.245232 -7.9972687 26.864609 26.864609
24.355988 -64.48497 15.27919 15.27919
-28.455856 -45.050194 47.526146 47.526146
-79.395203 12.68351 22.157463 22.157463
20.137383 -93.390358 6.5510788 6.5510788
-32.526985 -5.9941177 38.080505 38.080505
-62.194801 -52.014725 49.2332 49.2332
-61.338692 42.175583 -12.917717 -12.917717
-76.568741 2.2470474 31.020668 31.020668
-50.735607 17.156326 24.091072 24.091072
10.115837 -68.659225 27.704048 27.704048
-52.223125 -74.523087 46.920975 46.920975
12.588417 -28.995117 25.109818 25.109818
-83.114365 -11.557747 36.172104 36.172104
-37.306709 -68.731949 47.406334 47.406334
-5.8962479 -39.100559 39.084572 39.084572
7.8196259 26.641525 -22.018438 -22.018438
-43.310322 37.549942 -2.143383 -2.143383
-74.771729 -9.2339478 37.889076 37.889076
-25.780388 -34.699127 45.808632 45.808632
13.248756 -19.222847 21.079964 21.079964
-40.123993 -2.5455856 37.467384 37.467384
21.342339 -84.567802 10.953568 10.953568
-54.386242 -75.841507 46.503769 46.503769
14.450035 -85.2351 17.857796 17.857796
26.765869 -19.075211 6.1307297 6.1307297
-49.350136 -36.661549 49.104301 49.104301
12.479309 5.7569122 4.6580544 4.6580544
-52.889717 -5.5309677 39.521812 39.521812
-25.823242 -24.90052 43.730995 43.730995
11.794044 -18.58831 22.074974 22.074974
-22.497978 36.153717 -7.3247643 -7.3247643
-91.102577 -51.139568 41.155251 41.155251
-54.830246 0.6763916 36.073067 36.073067
-59.669018 -66.824852 48.099106 48.099106
-22.884247 -39.211643 45.646996 45.646996
26.87558 -84.71817 3.7102776 3.7102776
-71.380463 -94.343155 37.043442 37.043442
-26.208115 -30.468994 45.144554 45.144554
-2.9531937 -82.344734 32.100037 32.100037
-49.372864 15.685799 25.398827 25.398827
-13.45549 -18.947891 37.75116 37.75116
-27.83773 42.12944 -18.046909 -18.046909
-63.690029 -53.822178 48.984711 48.984711
-48.345039 -42.911816 49.734741 49.734741
26.476753 -37.628262 13.231686 13.231686
-85.897118 41.596527 -32.070343 -32.070343
-57.638306 15.632721 25.05999 25.05999
-29.273445 -62.71225 46.999016 46.999016
-1.7924271 27.039635 -8.2756081 -8.2756081
22.00502 -53.07251 19.324142 19.324142
-55.351017 -74.479034 46.80983 46.80983
-98.585289 -1.8685074 22.957718 22.957718
1.2751007 -45.481892 35.734772 35.734772
-63.03812 -62.681889 48.33197 48.33197
16.566322 -40.469711 24.014175 24.014175
-24.126389 -62.689785 45.757637 45.757637
46.908813 -61.615929 -28.234156 -28.234156
-7.4412613 -48.980434 40.485992 40.485992
-22.908417 -63.116257 45.362518 45.362518
-88.790817 -79.504623 37.319809 37.319809
6.2246094 6.9373474 9.9744263 9.9744263
0.94058228 -78.903961 31.053185 31.053185
-7.4011841 -42.496704 40.161194 40.161194
-89.165993 -63.879627 40.95813 40.95813
-72.764503 -38.950401 46.745461 46.745461
-90.076508 -74.355881 38.321373 38.321373
30.912094 -57.023994 8.3429222 8.3429222
-33.464882 -46.537155 48.56266 48.56266
-97.050514 -66.437759 36.695152 36.695152
-93.901108 11.307991 15.681221 15.681221
-55.139969 -54.795372 49.752617 49.752617
-27.859276 -77.601524 43.530449 43.530449
45.943588 -70.034111 -30.164101 -30.164101
14.133514 -85.173843 18.18866 18.18866
-52.216892 43.177139 -13.763203 -13.763203
34.73732 -58.037102 2.4880104 2.4880104
30.362259 -6.5371704 -9.3442535 -9.3442535
12.076126 16.269279 -8.1080246 -8.1080246
30.640732 -25.025139 3.6034393 3.6034393
33.948334 -64.787445 2.2877502 2.2877502
8.2728424 -12.7761 22.240273 22.240273
-21.354767 -22.948196 41.911102 41.911102
38.510071 -68.400742 -7.2521362 -7.2521362
-72.050056 32.579636 1.9076004 1.9076004
-51.246788 -88.150078 42.428444 42.428444
-92.119347 -86.886063 32.857582 32.857582
-23.559135 -99.827454 32.571823 32.571823
-46.904808 -7.9393768 40.671516 40.671516
-3.0620193 1.7898178 21.516716 21.516716
-89.067719 -18.106979 36.351311 36.351311
7.0080643 4.0724411 11.856705 11.856705
20.65258 17.676033 -29.307779 -29.307779
-3.0148697 -20.403038 33.165001 33.165001
-11.868828 39.547409 -27.037521 -27.037521
32.510986 -7.3746643 -12.91877 -12.91877
12.322357 -34.640518 26.681229 26.681229
22.721672 -57.149673 18.267426 18.267426
-50.324482 -16.387337 44.181122 44.181122
40.279968 -49.789764 -6.9943848 -6.9943848
-46.798115 -35.364822 48.871429 48.871429
16.80291 15.456902 -14.605572 -14.605572
-83.747444 -73.515778 41.14888 41.14888
-60.487392 28.721161 10.770008 10.770008
-22.007187 4.7555084 28.855797 28.855797
-78.530869 9.3594208 25.249245 25.249245
47.967789 -33.191849 -39.054733 -39.054733
42.868286 -21.760506 -25.958105 -25.958105
1.1241074 -27.492973 32.944321 32.944321
35.679443 -36.812031 -0.1491127 -0.1491127
10.50956 -22.357903 24.662628 24.662628
-10.267982 20.70507 8.4992294 8.4992294
49.710495 -47.543411 -42.804012 -42.804012
-29.858627 -74.373825 44.869606 44.869606
-95.977203 -36.800922 37.817314 37.817314
0.62023163 16.497002 4.9157639 4.9157639
37.502289 -43.033867 -2.0956917 -2.0956917
0.0039596558 26.537239 -9.4826546 -9.4826546
5.9504623 7.6812897 9.5181885 9.5181885
-15.179932 -59.623623 43.246712 43.246712
-45.559616 -23.061195 46.200745 46.200745
-40.810989 32.804413 5.3081474 5.3081474
-86.352951 4.9560776 25.221619 25.221619
-23.162766 4.2536469 29.600906 29.600906
-21.416092 -51.307831 45.81884 45.81884
-28.675728 36.433411 -4.4528694 -4.4528694
3.1379318 -38.177906 33.88443 33.88443
-42.580921 5.1835556 33.064629 33.064629
-99.324402 -70.525986 34.532761 34.532761
-97.362511 -74.26619 34.663712 34.663712
28.876144 -0.10263062 -14.100048 -14.100048
3.5350952 -41.417225 34.025764 34.025764
-69.04538 35.191162 -1.2174301 -1.2174301
-59.985806 -22.265556 45.556709 45.556709
-71.336456 -79.222565 43.224442 43.224442
23.562691 10.859024 -20.255926 -20.255926
19.227745 19.762596 -31.54196 -31.54196
34.295441 -34.204933 1.4275703 1.4275703
-4.4516373 -67.389435 37.309532 37.309532
20.941139 -51.224689 20.468826 20.468826
-33.673485 -28.105721 46.198158 46.198158
-59.487144 -80.83316 44.653633 44.653633
-24.057587 -79.042099 42.106178 42.106178
-96.226692 -56.334888 38.44751 38.44751
-73.473969 -95.187294 36.0644 36.0644
-31.690308 -14.085541 41.514511 41.514511
41.638397 -36.591976 -12.282246 -12.282246
-42.895645 -74.94194 46.578606 46.578606
7.8212891 -84.776588 23.80574 23.80574
8.6368942 -78.475655 25.834366 25.834366
-27.369759 26.637886 10.120766 10.120766
-77.841255 31.215805 1.2723846 1.2723846
-64.899582 -73.898247 45.952469 45.952469
-77.975037 38.886673 -13.715614 -13.715614
-15.404633 42.474136 -34.135124 -34.135124
-58.019711 -71.473839 47.337341 47.337341
28.304642 -73.212326 7.7024384 7.7024384
-65.785835 -6.8150787 38.802422 38.802422
39.950363 -71.877594 -12.180656 -12.180656
30.537369 -64.238388 7.5412979 7.5412979
6.7992477 21.631416 -9.4687004 -9.4687004
8.107933 -68.767563 29.1912 29.1912
-21.165909 -79.942505 40.950768 40.950768
-39.46978 -4.3611679 38.352768 38.352768
-14.782265 -30.174675 41.46949 41.46949
-70.498665 34.80249 -1.1293297 -1.1293297
-57.311466 -69.893585 47.728134 47.728134
-42.362041 -1.32061 37.017113 37.017113
1.5582581 -66.209259 34.136826 34.136826
-34.261597 -93.681244 38.56778 38.56778
25.428139 -83.6371 6.383873 6.383873
-91.075882 -82.940979 35.015671 35.015671
-15.737045 -31.772545 42.161865 42.161865
17.191574 -18.190147 16.883675 16.883675
4.5892487 -24.478317 29.803871 29.803871
29.315857 -79.989151 3.0060883 3.0060883
-38.708408 -21.302582 45.126015 45.126015
25.681259 -59.186321 14.714439 14.714439
-71.423462 -56.95668 47.430176 47.430176
-82.331406 -10.324303 35.90995 35.90995
33.204041 -22.000534 -2.1134987 -2.1134987
5.7796936 -34.767097 31.587891 31.587891
23.998985 -7.1468506 1.8435898 1.8435898
-80.225891 -81.976273 39.799294 39.799294
-12.468048 -60.748074 42.064278 42.064278
15.769806 19.360802 -20.616125 -20.616125
-14.329575 8.6626434 22.707047 22.707047
-52.261585 -85.467987 43.471428 43.471428
10.937775 -61.375755 28.467697 28.467697
4.2185059 -24.639114 30.107292 30.107292
-97.583038 -88.066193 29.289467 29.289467
21.179367 -66.703415 18.223846 18.223846
-86.108246 -30.351456 41.159912 41.159912
-8.1387787 21.227921 6.3402328 6.3402328
28.360626 -97.9823 -10.537212 -10.537212
-98.542084 13.236855 10.371902 10.371902
-24.214874 -4.8126831 35.400436 35.400436
-90.375717 -52.039913 41.463875 41.463875
-95.432465 -39.697052 38.485817 38.485817
-45.836102 -6.6892471 40.037994 40.037994
-70.344681 -88.342163 40.088692 40.088692
-60.305412 11.291649 28.339851 28.339851
-31.31868 -38.217896 47.530457 47.530457
-18.722839 -48.38121 44.96904 44.96904
-85.865898 41.487976 -31.463877 -31.463877
6.9581375 -4.8692322 18.694862 18.694862
21.296524 -78.6679 13.991852 13.991852
-84.639137 -38.846909 43.143646 43.143646
30.128815 -51.894455 9.7978592 9.7978592
-33.378998 10.273193 28.044121 28.044121
-63.029278 44.483414 -19.947994 -19.947994
-43.620701 -62.015858 49.070297 49.070297
-67.215607 -87.968925 40.895454 40.895454
-96.710335 -39.230148 37.761925 37.761925
12.26815 18.684433 -12.514992 -12.514992
-99.144577 -96.971588 23.338127 23.338127
40.180069 -29.599426 -11.903122 -11.903122
-44.678329 47.055695 -26.508043 -26.508043
18.948761 -82.284729 14.836449 14.836449
-24.353981 -66.796127 45.184937 45.184937
-26.338455 -5.7305908 36.489021 36.489021
-17.395287 -16.965584 38.575729 38.575729
-6.6681061 19.771782 7.04599 7.04599
-53.461296 -18.06678 44.70105 44.70105
-58.466415 42.985718 -14.195313 -14.195313
-61.81229 21.176193 19.241745 19.241745
-37.253593 -43.622185 48.97905 48.97905
8.4333191 -7.1294632 18.903297 18.903297
-31.413437 29.933472 7.1417503 7.1417503
-98.224892 -41.981548 37.23568 37.23568
-13.10997 -52.997246 42.89856 42.89856
-79.35994 44.294083 -34.295856 -34.295856
32.134552 -92.658981 -12.130131 -12.130131
-10.816948 -80.645721 36.749802 36.749802
-5.9357376 -10.074806 30.400993 30.400993
-61.522694 29.142838 10.030315 10.030315
-62.033081 18.501411 21.852364 21.852364
45.231659 -22.901833 -35.977871 -35.977871
-68.148758 -5.1890411 37.536278 37.536278
-20.968018 -3.6273804 33.706177 33.706177
-77.190041 40.727158 -17.917526 -17.917526
-1.6128464 -54.81163 37.381523 37.381523
-86.11496 -18.571747 37.795074 37.795074
31.667084 -19.691544 -0.88905716 -0.88905716
-50.260277 -74.632347 46.918419 46.918419
44.895859 -39.954803 -20.102339 -20.102339
-54.817139 48.600342 -34.038559 -34.038559
2.8931046 4.3112869 15.21199 15.21199
-77.842018 -20.918808 41.53746 41.53746
-47.476532 17.918716 23.353119 23.353119
-30.252922 26.410065 11.412983 11.412983
-54.649853 48.009109 -30.697313 -30.697313
-55.233063 -55.963116 49.684784 49.684784
38.073929 -66.207184 -5.4993248 -5.4993248
-66.990723 -35.103951 47.413666 47.413666
33.227753 -64.781097 3.4290199 3.4290199
-84.524246 -7.5580902 33.706398 33.706398
4.2338028 25.786995 -13.73671 -13.73671
-67.391472 -26.082436 45.527412 45.527412
16.228638 -22.626816 19.745796 19.745796
-19.365433 -62.967289 44.30468 44.30468
13.416039 -0.014480591 8.990284 8.990284
-5.9434967 -12.714943 31.663025 31.663025
32.582321 -81.901382 -3.4977226 -3.4977226
-43.625183 -44.709564 49.656273 49.656273
-80.037102 6.2536469 27.027916 27.027916
26.397797 8.1503601 -22.037308 -22.037308
-54.322247 -88.326714 42.262566 42.262566
-35.812416 17.588425 22.322311 22.322311
-39.644253 33.782043 3.6034279 3.6034279
-11.328712 -50.839077 42.216194 42.216194
-58.832352 47.35289 -28.919102 -28.919102
30.607483 -72.059334 4.9164772 4.9164772
-11.981644 -7.0855026 31.932602 31.932602
-66.97934 -73.645241 45.669243 45.669243
37.959686 -78.428078 -11.856342 -11.856342
9.5981827 -68.722878 28.086555 28.086555
-4.5604324 -13.583405 31.296234 31.296234
-89.721443 -34.599602 40.471184 40.471184
-52.893215 8.8099823 30.827072 30.827072
-39.929588 -59.549168 49.032318 49.032318
-40.438442 -57.824177 49.233856 49.233856
13.007149 18.116966 -12.714912 -12.714912
-37.082695 38.0513 -4.391758 -4.391758
35.067154 -39.955883 1.6013069 1.6013069
-36.826683 -11.052315 41.156685 41.156685
-12.789688 -21.348282 38.286308 38.286308
-15.976532 -86.603638 36.617416 36.617416
-74.524925 43.597336 -24.740004 -24.740004
22.42041 0.35413361 -2.8858299 -2.8858299
12.677086 -88.129593 17.953789 17.953789
47.870056 -33.541168 -37.729767 -37.729767
-82.596306 -80.357529 39.531563 39.531563
-63.000534 30.943588 7.2636185 7.2636185
-57.133579 -55.89996 49.570595 49.570595
-22.271675 -73.07692 43.266266 43.266266
-14.827225 -75.925308 39.948624 39.948624
-34.334282 -19.192192 43.837433 43.837433
17.850685 -16.914536 15.586861 15.586861
-51.69096 -9.7429886 41.523293 41.523293
38.820618 -25.472404 -11.150356 -11.150356
-56.579952 41.541809 -10.291039 -10.291039
-85.441429 35.074158 -11.189011 -11.189011
-99.406281 -37.048149 35.972488 35.972488
-80.956696 -7.2584229 34.940216 34.940216
-0.3345108 5.7018051 16.56311 16.56311
10.578072 29.035828 -40.854797 -40.854797
-65.554886 -46.078747 48.704956 48.704956
-59.740959 -43.903404 49.337532 49.337532
16.145096 -28.386101 21.816887 21.816887
0.13871002 -74.998932 32.832138 32.832138
-69.531746 30.28241 6.3315697 6.3315697
14.250908 -86.850578 17.185234 17.185234
-17.811508 -36.182373 43.664162 43.664162
-15.643402 -70.77359 41.586472 41.586472
-11.352203 -87.032234 34.468704 34.468704
28.877396 -8.8832626 -4.3078728 -4.3078728
-2.496521 25.109673 -4.1529007 -4.1529007
-47.103279 32.274979 6.7665138 6.7665138
-46.658367 0.90001678 36.011749 36.011749
22.253326 -81.668518 11.453739 11.453739
-1.3390579 -58.582516 36.939362 36.939362
-98.692055 -30.308731 35.096054 35.096054
-88.515732 37.381363 -20.317747 -20.317747
-80.166016 2.31073 29.709465 29.709465
48.388428 -48.182861 -32.211914 -32.211914
11.358047 5.5159912 6.1530457 6.1530457
-67.861526 -36.566967 47.470612 47.470612
17.478928 -2.9322357 6.8438187 6.8438187
-94.247887 -26.858559 36.640625 36.640625
-0.32701111 13.235428 9.4464035 9.4464035
-89.529327 -44.445522 41.687401 41.687401
24.356499 -68.074509 14.377197 14.377197
-93.105042 -8.5590973 30.153648 30.153648
-51.205097 21.455742 19.947304 19.947304
-34.843567 -84.746986 42.536102 42.536102
47.52298 -65.063156 -33.802155 -33.802155
-56.048325 46.367538 -23.986238 -23.986238
-29.75412 -93.72538 37.625313 37.625313
-16.762115 -54.245266 44.219002 44.219002
-49.265354 37.879059 -2.284893 -2.284893
-37.942417 16.898903 23.342697 23.342697
-2.7199631 -90.947075 28.025223 28.025223
11.104858 -7.2235413 16.606087 16.606087
30.028397 8.001915 -34.79364 -34.79364
-85.891068 -32.245728 41.633057 41.633057
11.926056 -7.2025909 15.829666 15.829666
-18.987465 41.790436 -25.246449 -25.246449
-62.994064 -89.372971 40.99958 40.99958
-79.487457 -81.239601 40.302696 40.302696
11.499084 -86.946907 19.661957 19.661957
-2.6080704 -87.589844 29.630455 29.630455
-66.683121 -0.78521729 35.437576 35.437576
-62.766666 -85.819908 42.487549 42.487549
9.8388443 -67.544785 28.176041 28.176041
-46.937443 -31.335236 48.194946 48.194946
18.630219 21.788002 -38.321987 -38.321987
-21.908943 -92.035194 36.278244 36.278244
27.748215 -57.228161 12.473747 12.473747
-16.286911 -97.532219 31.265709 31.265709
-51.382454 -66.854103 48.559769 48.559769
-43.403881 -4.5569611 38.833672 38.833672
-85.302208 18.195793 14.055351 14.055351
-74.580093 -98.632683 33.849159 33.849159
-27.744278 -95.701317 36.116623 36.116623
-81.438095 -2.377388 32.120239 32.120239
27.748611 -74.737152 7.8206406 7.8206406
-68.156548 -47.683662 48.3106 48.3106
-13.017166 7.7630386 22.771568 22.771568
8.3798294 -42.490547 30.841843 30.841843
-21.817101 41.547104 -21.279755 -21.279755
38.551193 -49.580223 -3.5402336 -3.5402336
-82.375549 -15.481384 38.092506 38.092506
-64.883072 8.2315674 29.922325 29.922325
-78.773628 -8.5497513 36.336288 36.336288
-92.385956 -97.856735 26.897095 26.897095
-57.543259 -3.9651794 38.452782 38.452782
26.052109 -3.4088211 -4.7745781 -4.7745781
-71.587997 -60.910015 47.030563 47.030563
-60.236389 -84.809921 43.185219 43.185219
15.650139 -8.3152084 12.868416 12.868416
-40.515812 -0.99794006 36.65361 36.65361
-8.3852081 5.6350708 21.92321 21.92321
-39.708042 42.10112 -12.430611 -12.430611
-10.547783 -60.580177 41.277496 41.277496
16.958633 -24.312057 19.689819 19.689819
20.252144 -24.362427 16.387886 16.387886
25.613632 -95.772972 -3.2302055 -3.2302055
-82.48494 34.954681 -8.4376297 -8.4376297
-34.55883 6.7928925 30.846382 30.846382
0.41239166 -60.743954 35.69223 35.69223
10.70919 21.379875 -15.081413 -15.081413
-76.265518 -68.423622 44.713737 44.713737
-44.294434 -55.114056 49.706032 49.706032
-0.011360168 2.0571442 19.218422 19.218422
-54.570175 -83.55777 44.090324 44.090324
-56.110905 28.956085 11.062206 11.062206
-3.3076859 -17.901421 32.398476 32.398476
-94.263428 -67.186111 38.007881 38.007881
-45.435341 -40.662365 49.458397 49.458397
14.090942 -89.834702 15.616676 15.616676
16.809067 -98.439957 6.4811401 6.4811401
-15.224442 15.498161 17.086891 17.086891
-36.299915 -83.138947 43.349442 43.349442
-37.122547 33.7509 3.1032753 3.1032753
-19.115761 -88.769371 36.851021 36.851021
-69.362816 25.508926 12.637714 12.637714
-70.047501 -18.024849 42.605011 42.605011
-52.53643 -86.124962 43.21241 43.21241
-37.69173 -35.534859 48.179764 48.179764
-44.641884 10.435036 29.491493 29.491493
-71.434967 25.813332 11.586369 11.586369
40.181595 -32.41124 -10.529568 -10.529568
-30.399826 -78.170273 43.926933 43.926933
-92.797607 -58.463692 39.981834 39.981834
-37.592632 4.1535263 33.147171 33.147171
-16.740166 -59.398689 43.837349 43.837349
-90.227455 -7.017334 30.834656 30.834656
-68.967628 -37.413795 47.374619 47.374619
-46.12196 -76.29023 46.404274 46.404274
-8.204689 -91.538773 30.794075 30.794075
17.227623 16.59639 -17.667862 -17.667862
-41.286617 -81.38829 44.545502 44.545502
3.0739746 24.073982 -8.8150711 -8.8150711
-30.06765 2.6404648 32.653992 32.653992
5.5856247 7.0036316 10.504745 10.504745
-49.913342 -39.470757 49.444092 49.444092
-90.605408 22.162521 6.0693398 6.0693398
-81.761375 0.55419159 30.221497 30.221497
-4.8598557 -5.9806213 27.61869 27.61869
-80.963364 -89.446213 36.517433 36.517433
-2.347496 22.130203 0.26403046 0.26403046
-39.923073 -6.8459854 39.644783 39.644783
-48.910164 -90.302261 41.512512 41.512512
-74.456825 1.6303864 32.074158 32.074158
-26.550148 -16.785828 41.361496 41.361496
-39.234905 -31.78878 47.73671 47.73671
-73.835266 -8.1564331 37.641289 37.641289
-16.439789 25.14019 6.8125343 6.8125343
-93.071754 -91.383873 30.200996 30.200996
28.752762 -71.230507 7.8555794 7.8555794
-64.279907 -53.608212 48.909378 48.909378
-75.296135 -90.051666 38.067986 38.067986
14.180183 -96.901794 10.672283 10.672283
23.85495 -4.6986465 -0.067710876 -0.067710876
10.267876 -3.1539307 14.600533 14.600533
21.24575 -51.647747 20.152176 20.152176
-90.885612 -31.506134 39.366348 39.366348
-62.482502 -60.586334 48.651489 48.651489
-53.15863 5.286705 33.267059 33.267059
-0.27467346 3.0317993 18.666 18.666
-81.463837 -82.01207 39.360252 39.360252
-10.946434 -17.067841 35.966805 35.966805
-39.679825 -91.178169 40.541992 40.541992
-46.312798 -21.898209 45.899391 45.899391
-5.0600281 -50.495773 39.331703 39.331703
38.701614 -49.702896 -3.8271179 -3.8271179
37.064056 -81.972702 -12.615555 -12.615555
10.711899 -36.32589 28.275696 28.275696
-64.785484 -49.194813 48.897629 48.897629
-59.052246 20.666 20.173874 20.173874
20.996407 -99.293953 0.2952919 0.2952919
-75.079521 -9.3834839 37.871025 37.871025
-80.889816 -99.313187 31.326683 31.326683
-63.779671 -45.038258 48.9217 48.9217
-40.523602 -26.872246 46.826157 46.826157
-66.960167 -56.885548 48.31044 48.31044
19.172752 -5.9323044 7.2116127 7.2116127
-41.567051 -85.749741 43.009903 43.009903
12.773323 -19.030678 21.41716 21.41716
-41.042934 -32.954002 48.12851 48.12851
-52.032272 11.682556 28.683746 28.683746
-45.756168 -88.938309 42.009773 42.009773
30.398376 -43.867653 9.1480827 9.1480827
4.9003448 -55.867359 33.375816 33.375816
12.917625 -45.345348 27.586769 27.586769
16.217361 1.8809891 4.0705452 4.0705452
30.674469 -17.818382 -0.44221878 -0.44221878
26.236725 8.5607071 -22.457207 -22.457207
-67.414291 -63.640003 47.522781 47.522781
37.841614 -63.676517 -4.2091293 -4.2091293
-47.635323 -81.270966 44.955437 44.955437
-84.089218 -43.47562 43.783569 43.783569
-28.129539 -47.383274 47.544022 47.544022
-90.621147 -26.96357 38.426498 38.426498
-22.790375 -34.869484 45.030014 45.030014
-81.908813 -99.978661 30.523048 30.523048
-45.801769 -25.059875 46.748978 46.748978
1.1452332 -31.309669 33.873932 33.873932
-34.278831 -12.017876 41.160316 41.160316
-31.524376 6.1213226 30.678673 30.678673
-49.853485 -18.789635 45.004692 45.004692
-18.956978 -57.886967 44.731865 44.731865
-53.952286 -5.6375885 39.534103 39.534103
8.5297318 -8.2960968 19.534561 19.534561
-60.908905 -71.709961 47.003471 47.003471
-66.187141 -7.3956909 39.010391 39.010391
-98.060028 -42.7584 37.39447 37.39447
-56.064968 -61.575893 49.142395 49.142395
-60.197403 -44.052219 49.300735 49.300735
-73.937531 28.272766 7.4488335 7.4488335
-39.371647 -16.827171 43.736877 43.736877
-63.552067 14.976311 24.79586 24.79586
-36.316311 -42.971027 48.809669 48.809669
-59.552761 -16.363152 43.687279 43.687279
-98.151588 -94.426361 25.549477 25.549477
-62.784683 -67.178619 47.680328 47.680328
-25.011292 15.328957 21.468117 21.468117
-83.835129 -30.957962 42.15522 42.15522
-67.73822 33.516068 2.0617104 2.0617104
-55.330311 -82.998398 44.248039 44.248039
-68.718102 7.2361374 29.83519 29.83519
-52.02655 2.2955627 35.211899 35.211899
24.273209 -19.262779 9.4870911 9.4870911
-46.025459 -7.5584869 40.459496 40.459496
24.55127 -7.9078522 1.6755219 1.6755219
-96.367264 -90.454506 28.825821 28.825821
-7.8734055 18.671127 9.2420998 9.2420998
36.92746 -64.884697 -2.8612404 -2.8612404
-22.962708 -13.876137 39.241531 39.241531
-45.653397 -92.5877 40.373642 40.373642
-32.78212 -40.912144 48.086464 48.086464
-22.745583 20.304504 15.684654 15.684654
40.435425 -90.873665 -37.720856 -37.720856
13.663589 -65.732147 25.494682 25.494682
-38.288403 7.2717514 31.134361 31.134361
25.698074 -57.923553 14.861534 14.861534
9.4222641 -63.56274 29.27829 29.27829
-2.6571045 27.428017 -8.0053253 -8.0053253
-16.920517 -60.101875 43.828033 43.828033
41.043381 -32.801857 -12.379181 -12.379181
-2.5363159 -92.163719 27.262016 27.262016
42.65892 -47.640453 -12.466591 -12.466591
-53.324024 -79.082611 45.619835 45.619835
-95.979477 -17.581566 32.673653 32.673653
-0.69957733 -19.749107 31.574211 31.574211
-97.998428 -49.198013 37.724045 37.724045
-30.042007 21.318039 17.196846 17.196846
-54.25481 -88.039711 42.384399 42.384399
-41.126221 -84.34903 43.495453 43.495453
-59.283657 -97.041733 37.754707 37.754707
-18.243256 -74.162308 41.693466 41.693466
40.127548 -51.352524 -6.6964684 -6.6964684
-11.495583 -59.851807 41.762474 41.762474
-38.927185 -41.993481 49.062042 49.062042
25.158203 5.8083649 -14.833668 -14.833668
18.604401 -41.563171 22.265175 22.265175
22.471306 -54.909386 18.729965 18.729965
-26.287285 23.77993 13.199913 13.199913
-30.400932 28.027847 9.3930283 9.3930283
-44.907726 -1.2273636 37.151009 37.151009
-41.778271 -75.093643 46.450569 46.450569
30.198898 -1.4556656 -15.192184 -15.192184
-52.415096 6.1930161 32.683205 32.683205
16.898453 -47.672791 24.291191 24.291191
-78.60376 -45.523285 45.717209 45.717209
-43.717224 -88.048119 42.265198 42.265198
-34.724182 11.687111 27.209778 27.209778
-8.5279083 33.003159 -12.710041 -12.710041
-1.744133 -16.357994 30.867714 30.867714
-5.1691666 -29.941002 37.10817 37.10817
-84.445877 42.345993 -33.097359 -33.097359
-81.303307 16.506783 17.800819 17.800819
-81.616318 14.35379 19.706512 19.706512
21.744476 -29.07016 16.443001 16.443001
-95.87455 -87.838875 30.397423 30.397423
-61.477497 -8.9523544 40.461914 40.461914
-14.642509 34.527649 -9.938488 -9.938488
30.261658 -30.09478 6.2303162 6.2303162
29.279175 -50.777126 10.944305 10.944305
21.532608 -60.544312 19.078964 19.078964
-58.906189 20.005241 20.851578 20.851578
-34.835838 -26.975838 46.124588 46.124588
-71.153847 -72.757233 45.050636 45.050636
-5.9981766 -72.390152 36.962753 36.962753
-52.188171 -78.51725 45.822639 45.822639
-43.898846 -23.542633 46.243355 46.243355
38.587341 -36.002151 -5.7694321 -5.7694321
-5.0527725 -75.604942 35.581154 35.581154
-47.289127 17.400406 23.823006 23.823006
30.149384 -55.971848 9.5013695 9.5013695
-39.641685 -11.764717 41.819214 41.819214
-36.52116 30.96698 7.1197777 7.1197777
-45.839031 -33.681641 48.571785 48.571785
28.579788 -76.676926 5.7992706 5.7992706
24.811722 -65.371964 14.551598 14.551598
8.5931091 -70.886688 28.298111 28.298111
-27.373718 -49.804424 47.406433 47.406433
30.812607 -44.045685 8.5992203 8.5992203
-68.289871 -71.000488 46.044052 46.044052
-87.124023 12.520134 18.651581 18.651581
-48.87767 -12.509087 42.699364 42.699364
-49.857052 0.62361908 36.239365 36.239365
-39.728325 -60.982166 48.862961 48.862961
-2.4996719 -52.764912 37.954956 37.954956
-8.1414642 7.8822937 19.982162 19.982162
-11.609055 -93.338287 31.534828 31.534828
-27.07283 -91.518333 38.037338 38.037338
-43.217896 -98.108131 37.404869 37.404869
-94.847809 -4.6253738 27.00531 27.00531
-8.5800018 34.804031 -16.944588 -16.944588
-84.59388 -16.747345 37.735535 37.735535
-41.888321 5.2597961 32.949112 32.949112
25.640381 -93.085808 -0.78469849 -0.78469849
-71.6838 -78.949615 43.229462 43.229462
-36.746151 -76.834084 45.416283 45.416283
-71.187103 -73.481567 44.866867 44.866867
35.718124 -13.141602 -14.029716 -14.029716
12.470924 -18.098953 21.272064 21.272064
-90.237862 -53.745651 41.47068 41.47068
-34.322693 26.676811 12.248604 12.248604
-3.2101059 -41.64397 37.982285 37.982285
30.001358 -90.670883 -5.8903389 -5.8903389
-71.120667 -26.205803 44.803764 44.803764
-43.40654 35.34375 1.700779 1.700779
-69.268372 -31.966316 46.454735 46.454735
39.537628 -83.084183 -20.193119 -20.193119
-70.273964 -75.7052 44.489197 44.489197
-28.187973 -20.814476 43.125938 43.125938
-76.23481 12.14418 23.822998 23.822998
11.512352 -74.879761 24.814621 24.814621
-18.350647 23.377106 10.117538 10.117538
-71.839088 -63.61702 46.631416 46.631416
-89.840073 -59.494598 41.228401 41.228401
28.14711 -89.855515 -1.994091 -1.994091
36.89621 -54.962227 -0.76154709 -0.76154709
-80.289101 -87.317291 37.692589 37.692589
41.647156 -86.269348 -33.108196 -33.108196
-78.141754 -51.254337 45.950348 45.950348
-70.44342 -0.68384552 34.557571 34.557571
-85.511177 -38.12957 42.725662 42.725662
-72.929733 26.570465 10.093189 10.093189
-67.948158 -35.361603 47.280937 47.280937
-21.058929 44.827042 -36.952164 -36.952164
-92.734299 28.415268 -5.0019379 -5.0019379
-42.914242 23.223412 17.735695 17.735695
5.3409729 15.722725 1.1654205 1.1654205
-68.897232 -66.138931 46.862946 46.862946
-62.50198 8.6155319 30.049484 30.049484
-42.680496 -6.3440933 39.669319 39.669319
-24.701912 -10.570007 38.347511 38.347511
-2.2506409 37.728683 -45.134125 -45.134125
-99.650139 -88.394073 27.850876 27.850876
1.7106628 25.361679 -9.4213715 -9.4213715
-37.301247 3.9450912 33.238625 33.238625
-11.888329 -19.141037 37.150589 37.150589
8.2969284 -20.107887 25.550842 25.550842
4.4464798 -33.89003 32.316765 32.316765
-50.55093 -21.807243 45.941986 45.941986
-72.341682 -57.390358 47.191727 47.191727
-80.647606 -39.343483 44.589447 44.589447
-13.350517 -24.629181 39.516129 39.516129
12.804092 -55.997135 27.586601 27.586601
-14.032013 -88.417641 35.031693 35.031693
-69.398567 3.0105972 32.544365 32.544365
-37.004028 18.626869 21.564362 21.564362
16.266586 -93.635185 10.866333 10.866333
-81.789764 -20.314377 40.045403 40.045403
-86.600258 -27.671486 40.343002 40.343002
-51.855106 32.240219 6.8603973 6.8603973
-43.437977 20.636024 20.480438 20.480438
-45.92395 3.1533203 34.605614 34.605614
-8.6735001 -41.784691 40.689743 40.689743
-40.083958 18.885735 21.808266 21.808266
9.5341415 -27.260139 27.062218 27.062218
3.0883789 1.2613297 17.48259 17.48259
36.51358 -71.375198 -4.6292877 -4.6292877
-99.490952 34.043701 -27.925087 -27.925087
-18.439796 -37.30423 44.036011 44.036011
11.610092 -74.069756 24.998955 24.998955
-80.481606 -21.177986 40.775345 40.775345
-83.558815 -7.1138687 33.872437 33.872437
-56.966549 -64.029358 48.765602 48.765602
10.60392 12.071678 -0.25794983 -0.25794983
6.4301376 -32.88681 30.763718 30.763718
4.1404953 -11.434723 24.70961 24.70961
-91.179283 -40.849041 40.667122 40.667122
26.293495 -91.802986 -0.68658447 -0.68658447
-42.396385 -27.176506 47.063248 47.063248
24.949585 -69.883636 13.144283 13.144283
-11.878761 25.503242 3.3482094 3.3482094
13.035164 26.163277 -34.975899 -34.975899
-73.140335 -58.63599 46.901726 46.901726
-94.867699 30.161911 -10.491051 -10.491051
-95.011475 -87.890366 30.859673 30.859673
-66.831604 -62.240288 47.810387 47.810387
-3.8505325 -59.627129 38.190392 38.190392
6.2546844 -69.843681 30.259819 30.259819
-47.227554 -65.800385 48.704918 48.704918
42.72316 -80.423416 -28.163517 -28.163517
-32.426834 45.31221 -25.367367 -25.367367
-86.732727 -59.67453 42.504654 42.504654
-72.815323 -74.327156 44.274338 44.274338
-84.837349 -0.39025879 29.531326 29.531326
25.796379 -7.1153183 -0.84908295 -0.84908295
-52.200188 -73.308861 47.220657 47.220657
-93.232918 -51.865517 40.152283 40.152283
16.127083 -70.713547 22.098251 22.098251
-63.922916 -83.028778 43.355515 43.355515
26.927223 -47.547089 13.845013 13.845013
10.321747 23.546638 -19.142607 -19.142607
-36.114395 22.676674 17.270287 17.270287
-73.893021 36.095917 -5.0932426 -5.0932426
-99.812393 -89.402077 27.241196 27.241196
-15.173515 14.819046 17.71711 17.71711
-14.568398 -6.8270187 32.949959 32.949959
-51.549603 -4.2580338 38.911591 38.911591
-74.157425 -68.028526 45.348785 45.348785
-89.89476 -49.32745 41.694908 41.694908
-30.413445 -99.939857 34.39418 34.39418
-65.598442 37.280396 -3.7526131 -3.7526131
11.60141 -96.03109 13.924995 13.924995
-18.252495 15.667252 18.409851 18.409851
-58.373177 45.432785 -21.321199 -21.321199
-73.064888 2.3752594 32.005142 32.005142
-86.083878 -48.784256 43.254898 43.254898
-62.282795 28.097565 11.236454 11.236454
23.151505 -11.578659 6.326355 6.326355
-6.2762222 -48.332237 39.919128 39.919128
-54.544254 2.0709763 35.25235 35.25235
-19.902206 -99.751549 31.356659 31.356659
-21.529274 -26.405785 42.912491 42.912491
-1.0939026 -66.199478 35.707474 35.707474
-53.285103 -40.581024 49.501213 49.501213
-68.854103 -93.619232 37.987984 37.987984
-54.793842 -66.653473 48.486954 48.486954
-57.10157 -53.029694 49.7015 49.7015
-95.112549 2.2897034 22.323196 22.323196
-12.189774 -97.832855 29.26162 29.26162
-14.109108 -52.826073 43.294464 43.294464
-14.443542 19.187737 12.839443 12.839443
-12.472794 -29.96991 40.501404 40.501404
-83.872528 11.313484 21.367416 21.367416
-6.4249344 5.8460922 20.586311 20.586311
-65.103134 33.50235 2.9079666 2.9079666
-86.279221 32.243149 -6.1835327 -6.1835327
-56.278702 18.634521 22.456055 22.456055
16.578903 0.63368225 4.8040085 4.8040085
-28.075165 -45.6973 47.471985 47.471985
27.813362 -65.028 10.985569 10.985569
14.166237 -16.911247 19.19413 19.19413
-52.917938 -62.407597 49.184357 49.184357
-79.622314 -87.141983 37.99427 37.99427
-58.88562 -49.04657 49.599884 49.599884
-23.307281 -93.942535 35.770348 35.770348
-25.411049 -29.708992 44.782166 44.782166
-58.660076 42.900146 -14.019932 -14.019932
-83.976028 38.683731 -18.681871 -18.681871
15.478661 -87.034767 15.88604 15.88604
-75.319542 -7.3182068 36.816963 36.816963
-43.398033 40.557037 -8.0972939 -8.0972939
-60.60532 -40.048061 48.936783 48.936783
27.219841 -17.580009 4.6446762 4.6446762
19.828125 -3.0598373 4.0430794 4.0430794
-96.962242 -66.813133 36.671021 36.671021
-48.130672 -10.484268 41.842323 41.842323
-37.80299 -8.1031952 39.977165 39.977165
-28.63327 34.242783 -0.53671265 -0.53671265
-27.046585 -14.15416 40.488762 40.488762
-27.466682 -32.421204 45.829201 45.829201
40.691986 -61.005779 -9.3326073 -9.3326073
-77.511703 32.552292 -0.72297287 -0.72297287
-40.199669 27.697456 12.18568 12.18568
-93.821693 36.464127 -25.431458 -25.431458
13.358948 21.855034 -21.320774 -21.320774
-9.5687866 -28.018349 38.781326 38.781326
36.990601 -45.778038 -0.85928345 -0.85928345
-17.205635 -38.164936 43.725456 43.725456
-1.0155411 -2.93573 23.385811 23.385811
-10.900246 17.176773 12.916534 12.916534
-22.513939 -30.16053 44.079285 44.079285
-12.052544 -16.542999 36.259026 36.259026
-22.512856 -78.869949 41.711411 41.711411
-40.934296 37.027451 -1.5847588 -1.5847588
23.333916 -99.926842 -3.8540649 -3.8540649
-50.728973 -95.159691 39.219231 39.219231
-68.946754 24.881516 13.512039 13.512039
-32.997978 -82.760643 42.939079 42.939079
-13.69104 -28.944443 40.765213 40.765213
-75.163506 -46.483814 46.718323 46.718323
-40.326859 -25.028496 46.347572 46.347572
28.717773 -24.191483 6.0127907 6.0127907
-12.102715 -56.223091 42.331299 42.331299
-94.477898 -96.553642 26.514542 26.514542
-40.654461 15.108833 25.322647 25.322647
-77.250786 -2.898674 33.897911 33.897911
