# .PCD v0.7 - Point Cloud Data file format
VERSION 0.7
FIELDS x y z intensity
SIZE 4 4 4 4
TYPE F F F F
COUNT 1 1 1 1
WIDTH 1179
HEIGHT 1
VIEWPOINT 0 0 0 1 0 0 0
POINTS 1179
DATA ascii
-35.220901 -25.116905 1109.8411 1109.8411
-66.617393 71.456055 1178.6422 1178.6422
-36.06279 -1.0123367 1106.7345 1106.7345
-34.758667 92.552933 1184.9736 1184.9736
48.36026 27.409676 1116.8737 1116.8737
35.153275 56.900345 1125.6589 1125.6589
84.55925 31.270523 1156.7347 1156.7347
-15.502213 -31.840881 1106.4808 1106.4808
62.634521 16.799759 1123.8772 1123.8772
73.686386 -31.800804 1140.3424 1140.3424
-34.511475 -45.894825 1118.1305 1118.1305
47.135239 -1.5888901 1111.8198 1111.8198
-30.911896 77.757446 1145.2439 1145.2439
19.676933 -14.722878 1103.0668 1103.0668
-56.536175 67.683609 1152.8556 1152.8556
20.580627 25.421906 1105.5005 1105.5005
22.672523 -88.635117 1159.6295 1159.6295
-82.158707 42.798492 1162.3406 1162.3406
-2.7141571 73.938995 1132.7271 1132.7271
51.338165 85.732178 1196.207 1196.207
-31.477669 -62.922771 1128.9375 1128.9375
-35.385193 -84.586349 1160.0872 1160.0872
81.212418 32.500534 1151.5411 1151.5411
-8.5948792 50.436432 1114.0797 1114.0797
29.175217 59.077499 1124.776 1124.776
-12.208992 -23.545364 1103.5813 1103.5813
-18.150818 5.9467773 1101.8411 1101.8411
19.429436 -75.426208 1137.2833 1137.2833
-52.068146 46.486145 1128.3904 1128.3904
-19.600227 8.7184753 1102.328 1102.328
-40.741875 34.792938 1115.5634 1115.5634
12.415314 -0.68688202 1100.7761 1100.7761
21.627678 39.481964 1110.7061 1110.7061
-39.506523 -52.001781 1124.2699 1124.2699
-53.882961 -65.504211 1147.0299 1147.0299
-85.155861 -11.640556 1148.8827 1148.8827
-60.552589 62.487106 1150.7177 1150.7177
84.366089 41.84462 1166.3639 1166.3639
-85.188614 28.406708 1156.0005 1156.0005
-58.187183 -23.451736 1122.1266 1122.1266
68.686935 34.843262 1136.2188 1136.2188
-72.446175 48.708069 1151.2242 1151.2242
-7.2110672 -80.397552 1140.9727 1140.9727
-61.415775 76.487274 1180.563 1180.563
-35.392799 -4.0901642 1106.5623 1106.5623
-49.956024 48.628159 1128.3083 1128.3083
-38.150181 -6.9121628 1107.822 1107.822
-56.045292 8.5883636 1117.6279 1117.6279
-88.038528 -47.191429 1195.2898 1195.2898
0.13434601 28.844009 1104.2502 1104.2502
-8.4321365 71.017334 1130.1041 1130.1041
-39.627625 50.120682 1123.0742 1123.0742
-23.43409 -73.449554 1136.3132 1136.3132
-32.309135 64.223724 1130.4915 1130.4915
-11.523071 89.598999 1157.1136 1157.1136
-13.374413 -92.123688 1163.4712 1163.4712
71.383499 47.881668 1148.8948 1148.8948
26.599709 33.498352 1109.6102 1109.6102
-29.949875 -84.511726 1155.7194 1155.7194
-14.323593 -76.929016 1137.7363 1137.7363
86.953049 43.683289 1176.9579 1176.9579
78.633514 0.32044983 1138.2208 1138.2208
-7.733078 10.245392 1100.8273 1100.8273
9.2898483 -27.931366 1104.4304 1104.4304
9.4315033 -43.328804 1110.3693 1110.3693
-51.8866 -51.974327 1132.1292 1132.1292
72.208359 27.713036 1136.6128 1136.6128
-36.56102 60.491379 1129.2605 1129.2605
-10.974533 36.4785 1107.5398 1107.5398
-37.003033 22.423569 1109.8448 1109.8448
47.549728 78.511124 1160.3134 1160.3134
-55.850609 -11.651077 1117.8723 1117.8723
29.249329 -56.169064 1122.608 1122.608
55.336075 -11.031548 1117.4396 1117.4396
27.611969 -93.847855 1179.2598 1179.2598
53.740158 8.5976105 1116.1068 1116.1068
70.538589 57.370178 1158.3711 1158.3711
45.914139 83.965652 1170.9886 1170.9886
-27.452888 39.863419 1112.4943 1112.4943
-36.648102 21.362564 1109.4431 1109.4431
-62.3424 -66.435562 1158.7721 1158.7721
75.173889 -19.259712 1136.929 1136.929
88.100296 11.299301 1154.058 1154.058
20.545853 44.66127 1112.9182 1112.9182
44.590607 -55.426533 1129.7179 1129.7179
-0.5083313 -71.169334 1129.7528 1129.7528
-47.540154 -87.878044 1195.8307 1195.8307
38.032776 90.513306 1181.0039 1181.0039
-94.494415 -16.740265 1171.8829 1171.8829
-32.663673 30.312561 1110.4778 1110.4778
-75.199814 48.407928 1155.2601 1155.2601
-80.162033 28.331009 1147.3558 1147.3558
-69.491074 -63.588654 1166.4221 1166.4221
-70.396469 -5.8057404 1129.2142 1129.2142
-40.460442 39.771667 1117.6521 1117.6521
35.571548 17.49984 1108.1936 1108.1936
43.248566 25.687492 1113.5725 1113.5725
-27.883904 17.526947 1105.5791 1105.5791
-39.293121 32.870865 1114.1189 1114.1189
-22.284973 -96.530334 1186.3884 1186.3884
43.027588 77.959869 1154.493 1154.493
-53.469299 -33.023849 1122.2153 1122.2153
-80.260384 -19.635811 1143.6732 1143.6732
65.378265 -54.83316 1147.856 1147.856
-19.593391 -95.16597 1176.3455 1176.3455
33.522934 47.284103 1118.5112 1118.5112
44.199936 84.415787 1169.6628 1169.6628
41.727631 -58.135952 1130.15 1130.15
-48.574818 -24.819359 1116.1877 1116.1877
-23.596275 -49.883152 1116.604 1116.604
24.490211 28.068405 1107.197 1107.197
43.851532 -16.195831 1111.599 1111.599
43.163055 82.01236 1162.4377 1162.4377
23.542763 30.098923 1107.589 1107.589
-7.4127884 -97.988121 1181.4695 1181.4695
10.002724 28.965302 1104.8109 1104.8109
16.010117 -11.25174 1101.9333 1101.9333
57.195251 -67.046173 1152.74 1152.74
-63.874508 60.604523 1152.5959 1152.5959
-88.356712 -34.526672 1168.3615 1168.3615
-0.68428802 -97.468262 1177.6511 1177.6511
-22.478645 40.050446 1111.1705 1111.1705
84.868652 5.9239044 1147.4432 1147.4432
22.321739 69.273666 1131.4224 1131.4224
27.968872 29.381241 1108.5972 1108.5972
28.278305 13.709023 1105.0663 1105.0663
10.247734 96.227295 1174.795 1174.795
-0.94867706 -57.913586 1118.4824 1118.4824
-59.129559 25.773537 1123.5839 1123.5839
-24.73481 22.036781 1105.6466 1105.6466
8.8624115 84.918961 1147.9402 1147.9402
62.621994 29.084442 1127.6635 1127.6635
-13.700447 81.247131 1143.3325 1143.3325
87.32225 -13.841446 1153.2749 1153.2749
-45.439766 -46.814831 1124.2135 1124.2135
-79.574837 -27.722931 1146.155 1146.155
-32.591797 49.539368 1119.479 1119.479
-63.62019 -71.909828 1172.0457 1172.0457
-28.500763 35.681412 1111.0363 1111.0363
-63.231476 -20.40966 1125.2656 1125.2656
10.137001 -71.399551 1130.7227 1130.7227
-65.90802 35.312088 1133.5983 1133.5983
-48.965263 2.1466599 1112.8347 1112.8347
30.232544 2.3297882 1104.708 1104.708
-66.143883 36.518402 1134.4912 1134.4912
61.651367 -12.264954 1122.2268 1122.2268
-2.254715 69.610672 1128.2416 1128.2416
-68.201714 -45.578384 1142.8062 1142.8062
-63.016083 10.425522 1123.0566 1123.0566
-0.94878387 55.3228 1116.7024 1116.7024
-7.4355927 9.4283218 1100.7235 1100.7235
-14.875397 22.370171 1103.676 1103.676
46.576035 5.4684601 1111.678 1111.678
-6.8078766 -17.513153 1101.7811 1101.7811
-2.0546875 -45.757301 1111.1066 1111.1066
13.886932 -21.546898 1103.3414 1103.3414
43.310944 -9.0654755 1110.3229 1110.3229
30.190857 22.635742 1107.3926 1107.3926
33.772278 -36.648403 1113.3032 1113.3032
13.236145 -68.565826 1128.4211 1128.4211
-39.580929 -66.504318 1136.6713 1136.6713
-23.836037 58.285812 1122.3173 1122.3173
-11.726021 -4.7451859 1100.8033 1100.8033
-90.210999 -6.3705063 1157.3223 1157.3223
45.328537 -29.347366 1115.8331 1115.8331
-61.86866 -54.166718 1143.0945 1143.0945
79.553726 -1.0347214 1139.4183 1139.4183
71.809769 -15.83773 1132.2318 1132.2318
87.101471 29.841156 1160.9764 1160.9764
-41.844814 -4.1273499 1109.2698 1109.2698
-51.624962 66.342209 1145.8375 1145.8375
-3.4227905 -23.19355 1102.7871 1102.7871
-37.060345 -83.657326 1159.6517 1159.6517
-55.152565 -59.75766 1141.8002 1141.8002
-31.747528 12.293564 1105.9736 1105.9736
15.148178 -25.065308 1104.3848 1104.3848
-54.442005 -78.576454 1170.6434 1170.6434
-64.37532 -12.88102 1124.5686 1124.5686
49.842957 70.422562 1149.4397 1149.4397
9.565033 32.083542 1105.7708 1105.7708
41.645477 -85.235535 1168.3684 1168.3684
64.063477 64.650543 1158.5732 1158.5732
-42.030781 -80.835899 1158.7814 1158.7814
-63.313305 -33.78363 1130.3574 1130.3574
59.006531 -49.812199 1136.4628 1136.4628
29.183502 -88.201431 1163.0023 1163.0023
43.513443 -66.512482 1139.3149 1139.3149
-27.864044 66.433121 1130.6442 1130.6442
29.839355 -42.385185 1114.4833 1114.4833
-41.421574 -54.617985 1127.1912 1127.1912
76.393372 -45.633228 1154.3748 1154.3748
43.757767 -67.716553 1140.8416 1140.8416
67.711365 33.377655 1134.4172 1134.4172
-8.7100449 65.844986 1125.2433 1125.2433
30.180084 61.703461 1127.3237 1127.3237
-12.605865 39.495056 1108.9988 1108.9988
-9.6298447 51.177505 1114.6295 1114.6295
45.939758 73.680908 1150.3949 1150.3949
18.506714 -69.14122 1130.1646 1130.1646
50.423584 71.75708 1151.9543 1151.9543
68.46965 -1.6937408 1127.1368 1127.1368
-86.342094 35.839874 1164.4958 1164.4958
-29.115173 -38.293465 1112.3307 1112.3307
-63.272877 6.1043854 1122.8036 1122.8036
-76.758583 -43.352001 1152.7906 1152.7906
-67.113655 22.546875 1129.3785 1129.3785
16.010323 -8.2209625 1101.6329 1101.6329
51.603439 30.856812 1120.0941 1120.0941
-34.203941 -79.024155 1149.1544 1149.1544
5.2600479 16.78904 1101.5598 1101.5598
-11.14299 -5.7597198 1100.7898 1100.7898
6.1296844 49.284271 1113.2043 1113.2043
19.685486 -63.503662 1125.3021 1125.3021
88.113937 -3.0134048 1152.8104 1152.8104
-72.995575 10.152367 1132.4088 1132.4088
83.638229 29.939682 1154.0842 1154.0842
-20.701324 -56.460056 1120.1018 1120.1018
47.63858 76.723724 1157.0577 1157.0577
83.588333 -54.223778 1191.4694 1191.4694
-86.99482 44.329468 1178.3944 1178.3944
-59.969501 15.572311 1121.507 1121.507
24.257721 17.656364 1104.6071 1104.6071
86.288818 14.730682 1151.6549 1151.6549
37.672348 45.034027 1119.051 1119.051
-26.334473 43.125473 1113.7058 1113.7058
-37.094559 -22.931763 1110.0104 1110.0104
-53.553463 -49.297947 1131.4308 1131.4308
-85.49057 -9.4994354 1148.9988 1148.9988
70.938812 62.502426 1167.4249 1167.4249
-71.22979 45.307526 1146.3945 1146.3945
15.42804 -67.161118 1127.5337 1127.5337
-33.110794 -69.379417 1136.0455 1136.0455
72.817368 48.889618 1151.9642 1151.9642
-78.111626 -28.823799 1144.6127 1144.6127
23.11512 67.741379 1130.1659 1130.1659
88.265488 23.811424 1159.4757 1159.4757
-30.477562 -44.300072 1115.6874 1115.6874
-45.262753 -54.197189 1129.1908 1129.1908
-19.302788 66.723221 1128.0597 1128.0597
-85.990181 29.595871 1158.4094 1158.4094
-8.6948166 82.583542 1144.2832 1144.2832
-55.56813 6.8931122 1117.1467 1117.1467
-11.911629 -35.880623 1107.422 1107.422
-46.166973 -10.884216 1111.9651 1111.9651
-77.067703 -53.873463 1165.9674 1165.9674
-3.4097748 88.703384 1153.9557 1153.9557
40.009277 25.507721 1111.9738 1111.9738
22.546181 81.638138 1146.8315 1146.8315
-50.71841 24.030373 1117.2341 1117.2341
-13.036362 51.067078 1115.0165 1115.0165
-22.13858 -58.39389 1121.8972 1121.8972
45.89122 3.2692871 1111.212 1111.212
13.725456 70.198242 1130.1157 1130.1157
-22.191704 -44.291325 1113.1334 1113.1334
-12.687698 14.470863 1101.8694 1101.8694
25.455475 49.962173 1117.2002 1117.2002
76.87088 39.737747 1149.8823 1149.8823
-76.909706 24.660828 1141.0361 1141.0361
-95.546211 -9.4812546 1172.0531 1172.0531
-64.97966 68.091507 1166.2185 1166.2185
-33.89888 -67.992386 1134.9777 1134.9777
6.4841385 -48.652493 1112.8743 1112.8743
-34.490791 -70.767792 1138.3372 1138.3372
62.576385 17.249466 1123.9299 1123.9299
27.137138 -95.910904 1191.9579 1191.9579
69.290894 8.5767059 1128.4094 1128.4094
-34.902878 64.298996 1131.828 1131.828
57.19281 -74.243889 1165.1169 1165.1169
-44.337147 83.971222 1168.6464 1168.6464
-73.859795 -45.911133 1150.635 1150.635
-61.737553 -1.8463058 1121.3549 1121.3549
-55.624191 -64.137634 1147.1577 1147.1577
44.666046 16.92083 1112.1443 1112.1443
32.619064 6.7305298 1105.7095 1105.7095
-33.001556 -84.114807 1157.1561 1157.1561
-38.837318 54.408752 1125.627 1125.627
-1.2040405 -9.7279129 1100.4816 1100.4816
-87.680992 35.431702 1167.494 1167.494
36.004501 -81.469948 1154.5432 1154.5432
-19.247276 41.772873 1111.205 1111.205
3.1244659 -68.466034 1127.1808 1127.1808
0.26670837 81.796722 1142.4741 1142.4741
-63.06535 -9.0003738 1122.9172 1122.9172
-70.562393 -50.936375 1150.7411 1150.7411
-68.496422 9.8131638 1127.8063 1127.8063
-42.238064 -16.417732 1110.8574 1110.8574
0.13870239 72.748474 1131.3877 1131.3877
-64.588585 61.137146 1154.2773 1154.2773
-74.882477 -38.490677 1146.0455 1146.0455
26.994476 75.094742 1139.7333 1139.7333
19.443443 69.643188 1130.9219 1130.9219
-26.16909 47.502274 1115.9839 1115.9839
-45.965141 26.462616 1115.2242 1115.2242
-21.206696 73.497559 1135.592 1135.592
-50.63921 64.031723 1142.2452 1142.2452
4.1553116 48.98941 1112.9209 1112.9209
57.040482 53.858322 1137.9866 1137.9866
-35.163795 -47.302853 1119.2167 1119.2167
-88.071564 -9.3884354 1153.5752 1153.5752
-28.681519 -64.808334 1129.4503 1129.4503
71.417694 -59.086185 1162.4722 1162.4722
-30.33847 -23.290596 1107.6034 1107.6034
4.8382645 24.505684 1103.1699 1103.1699
-40.751648 -23.868095 1111.8546 1111.8546
-84.912766 -18.748734 1150.6207 1150.6207
80.11853 -27.426918 1146.8137 1146.8137
9.1327515 -58.3018 1119.269 1119.269
-34.81086 70.028641 1137.6768 1137.6768
0.17115784 -82.015976 1142.7867 1142.7867
1.6386719 87.686493 1151.9542 1151.9542
-14.231667 62.175827 1122.9829 1122.9829
48.954971 -25.657745 1116.6628 1116.6628
60.460953 -63.836517 1152.3621 1152.3621
9.3456268 -8.1666794 1100.7732 1100.7732
-2.7008438 -48.251255 1112.4528 1112.4528
31.36467 -19.511375 1107.0723 1107.0723
-12.089005 92.644073 1164.3499 1164.3499
-56.871494 62.66983 1146.726 1146.726
-41.632641 -40.051174 1118.3751 1118.3751
-76.837128 55.855438 1168.7554 1168.7554
50.839844 -21.143829 1116.5239 1116.5239
-8.2810745 -41.37392 1109.3379 1109.3379
-57.698853 50.641785 1135.9199 1135.9199
17.540298 -20.096329 1103.6233 1103.6233
-54.989521 58.507751 1140.3929 1140.3929
6.4044952 96.16687 1173.337 1173.337
-61.861057 -77.894829 1189.7235 1189.7235
32.662994 -92.285416 1179.5909 1179.5909
56.80748 -1.6345444 1117.7185 1117.7185
-42.023182 89.568512 1185.4558 1185.4558
60.898483 -21.257439 1123.5834 1123.5834
-54.947788 -78.91835 1172.5658 1172.5658
-60.463123 -32.89164 1127.4579 1127.4579
40.474075 -37.1269 1116.433 1116.433
-91.432816 10.237251 1160.8179 1160.8179
-52.851963 7.5730209 1115.4463 1115.4463
2.8023376 -34.083809 1106.0295 1106.0295
-76.455872 24.011551 1140.1841 1140.1841
-92.475456 -33.025063 1181.0887 1181.0887
60.822113 -38.992001 1130.8604 1130.8604
-37.236267 34.800125 1113.9628 1113.9628
49.728592 -10.239166 1113.8477 1113.8477
24.278702 -84.143143 1151.725 1151.725
-43.283653 71.273041 1144.8032 1144.8032
-83.816437 -3.9685593 1145.6028 1145.6028
90.831375 18.921303 1162.6952 1162.6952
-30.865829 -47.384243 1117.5255 1117.5255
29.684631 76.731552 1143.1573 1143.1573
91.116913 -10.996201 1160.2911 1160.2911
-77.395859 22.697487 1140.8839 1140.8839
4.9912338 77.59845 1137.1226 1137.1226
22.353912 -95.577766 1180.89 1180.89
27.076637 69.982071 1133.8988 1133.8988
-36.505699 -38.802105 1115.373 1115.373
-26.522987 49.08783 1117.0126 1117.0126
35.604156 12.475609 1107.3895 1107.3895
-35.999603 27.417252 1110.8242 1110.8242
-97.32547 -14.067223 1181.8378 1181.8378
-18.061981 33.065643 1107.3694 1107.3694
98.38681 -16.474327 1193.0264 1193.0264
-73.428368 -50.447128 1154.5758 1154.5758
95.714981 6.0602188 1171.6819 1171.6819
38.64151 74.939148 1146.2324 1146.2324
-19.69313 -1.9215927 1101.9771 1101.9771
-85.816925 -20.519981 1152.9427 1152.9427
-20.161186 -80.444557 1144.1233 1144.1233
36.296768 89.367233 1173.6174 1173.6174
-2.2049026 50.040848 1113.4491 1113.4491
39.616745 10.672531 1108.8046 1108.8046
-91.864235 19.165382 1165.4508 1165.4508
90.737946 10.61721 1159.3318 1159.3318
-8.2544556 -97.086082 1177.5021 1177.5021
-54.066502 -49.643219 1132.0856 1132.0856
-59.820709 75.632141 1173.5187 1173.5187
21.435989 33.821182 1108.3669 1108.3669
13.311981 15.989342 1102.1882 1102.1882
10.025314 29.691589 1105.0374 1105.0374
21.446213 -17.956642 1103.9916 1103.9916
29.477554 -26.599815 1108.2202 1108.2202
38.091614 -92.191872 1192.951 1192.951
-73.748558 27.843246 1138.4703 1138.4703
-76.34404 40.500809 1149.6882 1149.6882
-53.597305 -43.943565 1127.9147 1127.9147
34.729675 89.362579 1171.5715 1171.5715
-37.77594 15.514313 1108.7186 1108.7186
-61.472622 -54.642754 1143.1205 1143.1205
14.952194 15.68959 1102.377 1102.377
-24.57605 53.442978 1119.1306 1119.1306
3.2707214 -17.728333 1101.6384 1101.6384
-28.57373 -80.115768 1147.4166 1147.4166
-39.812202 -52.396755 1124.7035 1124.7035
-50.750015 62.220291 1140.3923 1140.3923
60.492249 26.768509 1125.0057 1125.0057
38.898544 24.414078 1111.1696 1111.1696
-0.78202057 -90.555283 1157.5839 1157.5839
88.865372 -6.948822 1154.6716 1154.6716
31.931335 -89.226929 1168.0791 1168.0791
16.957733 -47.39579 1113.5935 1113.5935
30.319748 -46.09586 1116.598 1116.598
61.052734 1.0174408 1120.807 1120.807
5.1237793 68.252014 1127.0931 1127.0931
47.520798 -57.240154 1133.1768 1133.1768
-24.259964 50.828384 1117.3687 1117.3687
62.564011 53.730637 1143.4424 1143.4424
74.156815 -1.0017014 1132.9197 1132.9197
33.403854 13.528931 1106.7201 1106.7201
-70.030533 67.409546 1176.5122 1176.5122
-44.334412 -55.992966 1130.0054 1130.0054
42.06192 78.229034 1154.0542 1154.0542
-26.988388 17.235863 1105.2659 1105.2659
-22.932846 18.807137 1104.4994 1104.4994
-37.890625 -76.148552 1147.4102 1147.4102
-62.119431 24.887489 1125.6913 1125.6913
92.791824 -21.084572 1169.2572 1169.2572
-95.780655 -25.477608 1186.6974 1186.6974
14.201645 48.977829 1113.9797 1113.9797
-1.4013901 38.175629 1107.5844 1107.5844
9.7317657 -64.069687 1123.8398 1123.8398
1.3962402 93.688446 1165.064 1165.064
-63.662773 -15.257607 1124.4073 1124.4073
-33.38916 -92.378029 1181.2527 1181.2527
58.1026 2.7120132 1118.6567 1118.6567
30.956345 -48.210579 1118.04 1118.04
59.333939 2.984169 1119.5601 1119.5601
-22.411598 -16.370926 1103.9286 1103.9286
26.804649 -39.800167 1112.2649 1112.2649
12.579254 81.037277 1142.7748 1142.7748
59.648041 -52.879299 1139.6188 1139.6188
-66.267868 -35.88269 1134.2656 1134.2656
74.036484 34.750488 1142.4587 1142.4587
43.33139 -8.0669937 1110.2374 1110.2374
-74.531036 6.6016464 1133.6559 1133.6559
-22.934494 -3.9004898 1102.7437 1102.7437
6.2572098 63.942032 1123.3693 1123.3693
-44.178112 -16.574936 1111.8322 1111.8322
24.950958 -43.424152 1113.4448 1113.4448
33.025604 -25.228371 1109.0448 1109.0448
-64.52092 -64.668137 1159.3173 1159.3173
-32.127502 -55.022865 1122.9266 1122.9266
45.373779 1.5345917 1110.8997 1110.8997
72.372253 1.894928 1131.017 1131.017
25.595322 -49.096714 1116.7271 1116.7271
45.59581 -33.135574 1117.3982 1117.3982
74.639816 -15.01075 1135.165 1135.165
30.039139 -59.202003 1125.2152 1125.2152
32.418961 -4.9342957 1105.5295 1105.5295
-26.962021 91.573502 1170.2117 1170.2117
46.521179 74.938736 1152.8835 1152.8835
18.507385 -36.909779 1108.9224 1108.9224
-95.501915 29.024521 1193.9204 1193.9204
24.976776 32.715851 1108.8636 1108.8636
69.71048 -54.64444 1153.5841 1153.5841
54.41301 26.790581 1120.4922 1120.4922
-96.646591 -8.2269058 1175.674 1175.674
47.970276 21.040283 1114.8169 1114.8169
37.1633 -12.203011 1107.9675 1107.9675
3.9077911 -66.194229 1125.1465 1125.1465
-71.470413 -55.971462 1158.0575 1158.0575
84.40593 -21.919075 1151.0593 1151.0593
5.0522919 69.147919 1127.9373 1127.9373
15.734009 -32.841621 1106.8665 1106.8665
86.087662 17.815804 1152.3396 1152.3396
32.036911 46.877594 1117.6827 1117.6827
61.281433 18.439568 1123.1588 1123.1588
43.88707 -40.325867 1119.7021 1119.7021
39.06958 -17.467621 1109.6205 1109.6205
-29.76828 25.412163 1107.9779 1107.9779
0.52293396 -95.618118 1170.7271 1170.7271
-22.254631 46.67308 1114.4059 1114.4059
27.408424 94.51207 1182.2167 1182.2167
-32.08091 -20.406166 1107.51 1107.51
-94.091553 31.608932 1187.8486 1187.8486
10.543945 32.758194 1106.1079 1106.1079
-21.357521 -11.81855 1103.0249 1103.0249
69.184555 19.381462 1130.4453 1130.4453
22.437843 -7.9627151 1102.8756 1102.8756
47.834091 -15.681839 1113.5941 1113.5941
13.407448 -44.342381 1111.3772 1111.3772
-31.313393 58.680908 1125.3273 1125.3273
-16.976234 14.040291 1102.4568 1102.4568
-76.177368 59.258179 1173.8184 1173.8184
-43.124359 32.611954 1115.8766 1115.8766
28.482742 -80.488731 1147.9395 1147.9395
46.812439 40.932343 1121.6857 1121.6857
54.225967 47.221466 1130.5042 1130.5042
20.679131 -38.926434 1110.2386 1110.2386
87.524658 -46.335365 1186.1267 1186.1267
73.456833 45.716873 1149.8596 1149.8596
-84.847458 -52.183636 1191.1809 1191.1809
96.00386 21.978378 1182.6735 1182.6735
-3.1331558 -42.661804 1109.6111 1109.6111
31.447525 79.812866 1148.6097 1148.6097
-30.770836 -93.474182 1182.2311 1182.2311
21.613632 19.697487 1104.3712 1104.3712
-78.180206 58.397049 1178.145 1178.145
-63.306171 -36.092804 1131.519 1131.519
-72.247917 26.703835 1136.2258 1136.2258
67.307358 38.407806 1136.7975 1136.7975
-28.370087 -83.045563 1152.0565 1152.0565
-85.998848 -38.664322 1166.6943 1166.6943
-45.306396 -21.301086 1113.4344 1113.4344
54.415161 75.730927 1163.8916 1163.8916
-27.685989 -46.446766 1115.8799 1115.8799
47.911606 -61.917725 1137.7853 1137.7853
-68.35466 -61.245457 1160.2931 1160.2931
82.339432 27.662086 1150.4518 1150.4518
-53.25465 47.848267 1130.1825 1130.1825
-4.0353165 58.818024 1119.2278 1119.2278
95.776352 15.673302 1175.8911 1175.8911
-39.927994 -90.427124 1184.8774 1184.8774
-28.03286 60.447937 1125.4332 1125.4332
-58.138935 1.4433899 1118.6503 1118.6503
-39.376305 -49.768742 1122.7175 1122.7175
2.1287689 13.917854 1100.9961 1100.9961
-63.011906 36.940598 1131.7 1131.7
3.4134598 -2.2016144 1100.0825 1100.0825
-56.364243 -36.760117 1126.0286 1126.0286
40.108261 -7.2064362 1108.6797 1108.6797
-31.035881 -14.590057 1106.0643 1106.0643
2.6843109 91.44574 1159.6208 1159.6208
-35.425301 15.386375 1107.7595 1107.7595
-10.008743 27.789497 1104.4617 1104.4617
-8.3222656 62.32634 1122.2429 1122.2429
71.341583 49.365433 1150.2664 1150.2664
-8.1525421 66.976807 1126.1919 1126.1919
-40.116173 -81.770782 1158.7177 1158.7177
56.118256 -12.257683 1118.1434 1118.1434
-78.4161 11.133507 1138.9512 1138.9512
-53.191956 29.306519 1120.5535 1120.5535
74.055817 47.486359 1152.4523 1152.4523
-46.284943 -84.860779 1174.3806 1174.3806
49.128906 -31.65564 1118.8564 1118.8564
-4.1835022 10.748199 1100.6674 1100.6674
-66.322128 -24.159561 1129.1643 1129.1643
52.916718 -34.750908 1122.5907 1122.5907
91.632828 13.702415 1162.3746 1162.3746
25.74942 83.626251 1151.5891 1151.5891
-14.916405 8.1923218 1101.4587 1101.4587
-10.232521 -65.339096 1124.9927 1124.9927
-37.102325 -76.364899 1147.1624 1147.1624
24.801865 78.033585 1142.5924 1142.5924
32.343536 31.287201 1110.6971 1110.6971
7.547699 -30.842361 1105.175 1105.175
-22.770943 26.479813 1106.2968 1106.2968
35.852127 21.689178 1109.2024 1109.2024
-15.865097 23.357162 1104.0691 1104.0691
39.880341 89.102814 1178.3148 1178.3148
24.037468 4.7763672 1103.0496 1103.0496
21.934578 -31.593597 1107.6923 1107.6923
-19.409088 -22.497238 1104.5161 1104.5161
-12.340996 -30.734009 1105.6437 1105.6437
-23.950859 -69.007683 1131.7043 1131.7043
64.816254 54.423935 1146.7375 1146.7375
31.719025 7.4543686 1105.4573 1105.4573
44.896103 83.108749 1167.1781 1167.1781
-6.6957932 73.224609 1132.226 1132.226
38.987869 25.968491 1111.6508 1111.6508
40.363998 -63.357979 1133.9961 1133.9961
-53.646671 13.13604 1116.6365 1116.6365
-58.320488 41.819244 1130.359 1130.359
47.01181 75.174347 1153.7538 1153.7538
17.605255 -53.388626 1117.2975 1117.2975
-0.62496948 60.83725 1120.6373 1120.6373
-52.230064 -71.218033 1153.0957 1153.0957
21.293724 -19.570045 1104.2733 1104.2733
18.138412 95.118362 1175.0302 1175.0302
48.607635 -33.229599 1119.1725 1119.1725
26.617989 -19.120293 1105.5231 1105.5231
-47.175129 -13.343338 1112.8423 1112.8423
-75.207649 34.041458 1143.5643 1143.5643
59.543106 -36.258095 1128.3064 1128.3064
17.846939 -51.763046 1116.3217 1116.3217
-29.355301 -57.464867 1123.606 1123.606
-24.440201 -3.3114395 1103.0891 1103.0891
-10.470604 -47.304493 1112.5205 1112.5205
45.701035 45.420059 1123.5249 1123.5249
49.790604 14.055397 1114.4235 1114.4235
40.817642 82.158676 1160.2021 1160.2021
-19.02697 -93.861053 1171.2236 1171.2236
-59.678402 -77.279205 1178.4034 1178.4034
48.094177 -47.050529 1126.0189 1126.0189
51.714218 -13.126663 1115.4226 1115.4226
77.9207 25.723816 1142.8453 1142.8453
89.747391 -12.343285 1157.6556 1157.6556
77.720795 -3.1651611 1137.1553 1137.1553
-25.42009 79.411301 1144.7943 1144.7943
-0.46475983 -7.0414886 1100.2493 1100.2493
-54.720562 -0.24476624 1116.3005 1116.3005
12.364471 8.8823166 1101.1656 1101.1656
7.4536591 82.041306 1143.3108 1143.3108
-78.143707 20.932861 1141.2175 1141.2175
69.352386 3.0964737 1128.0232 1128.0232
22.01992 -64.113159 1126.4839 1126.4839
16.573631 5.3595886 1101.5287 1101.5287
10.844513 97.880798 1182.6292 1182.6292
-19.817192 -96.332352 1181.907 1181.907
-61.337715 29.505112 1126.7393 1126.7393
53.89859 44.325241 1128.3745 1128.3745
-79.676361 -44.343819 1158.9475 1158.9475
-34.482582 59.56485 1127.4536 1127.4536
-34.187698 83.577164 1157.0342 1157.0342
30.406555 -19.533661 1106.759 1106.759
44.181854 -32.850616 1116.5206 1116.5206
-73.947586 4.1492081 1132.8097 1132.8097
-45.349457 -45.810436 1123.5485 1123.5485
20.096359 5.7534332 1102.2092 1102.2092
8.7734375 -81.580582 1142.8368 1142.8368
-37.745213 -49.193012 1121.5439 1121.5439
-40.353371 7.1054688 1108.7798 1108.7798
-84.292496 -14.379005 1148.1539 1148.1539
10.139046 1.8383179 1100.5323 1100.5323
-64.859871 9.9135666 1124.5353 1124.5353
8.790123 -20.567474 1102.5336 1102.5336
-7.8094635 -73.111069 1132.2225 1132.2225
-75.412766 38.471008 1146.775 1146.775
48.581146 -56.073193 1132.9502 1132.9502
-47.540039 33.549728 1118.6713 1118.6713
-50.459679 -68.704865 1147.7175 1147.7175
-59.600315 -24.673203 1123.5864 1123.5864
-15.661774 92.850464 1166.3325 1166.3325
97.287598 -15.672279 1182.9852 1182.9852
49.745056 44.249573 1125.385 1125.385
-19.75206 57.66925 1120.7275 1120.7275
68.357254 33.998215 1135.4136 1135.4136
-2.6234894 -34.687515 1106.2456 1106.2456
-9.3163223 54.843506 1116.9012 1116.9012
-50.838314 55.19809 1133.9043 1133.9043
0.48709106 54.189072 1115.9565 1115.9565
70.122772 32.227631 1136.4061 1136.4061
-31.56945 52.54744 1120.9928 1120.9928
36.837463 -90.104836 1177.1063 1177.1063
-70.229523 46.907455 1146.4509 1146.4509
18.790146 -7.5623398 1102.0728 1102.0728
38.339478 32.714706 1113.6296 1113.6296
92.848068 -33.479637 1183.9268 1183.9268
-16.165733 -12.523232 1102.1132 1102.1132
-59.853153 37.149887 1129.0248 1129.0248
-20.200958 70.617554 1132.1393 1132.1393
-95.712471 13.976494 1174.6272 1174.6272
-54.839348 53.125046 1135.4215 1135.4215
6.9055786 -82.52343 1143.9447 1143.9447
-34.117165 16.221535 1107.4102 1107.4102
12.540329 -29.682808 1105.3339 1105.3339
23.261497 68.295013 1130.7562 1130.7562
51.537415 -19.224045 1116.4875 1116.4875
7.6315536 -95.38015 1170.9417 1170.9417
87.670044 -44.992405 1182.981 1182.981
32.79361 63.504807 1130.0592 1130.0592
13.963356 78.70224 1139.9086 1139.9086
61.892151 -7.704216 1121.8335 1121.8335
8.7296219 67.266708 1126.5222 1126.5222
3.3432693 6.222168 1100.2498 1100.2498
91.626572 -5.9194489 1160.3827 1160.3827
-90.918312 -36.46484 1179.8959 1179.8959
-1.1936493 84.456497 1146.468 1146.468
29.862183 9.7214432 1105.0593 1105.0593
-82.644714 -7.6899109 1144.2262 1144.2262
27.139473 83.725952 1152.5299 1152.5299
-31.292778 -91.702393 1175.2728 1175.2728
9.387146 57.765442 1118.9135 1118.9135
75.986145 -28.558075 1141.6001 1141.6001
20.112465 89.13942 1159.384 1159.384
-1.754776 -68.693359 1127.3491 1127.3491
12.959549 -1.0671005 1100.849 1100.849
10.641861 -93.788368 1166.9774 1166.9774
-34.790138 42.938049 1116.6575 1116.6575
4.0870438 82.906143 1144.2338 1144.2338
-86.900352 13.558945 1152.4135 1152.4135
39.469452 -38.991852 1116.8026 1116.8026
15.846268 1.6202087 1101.2769 1101.2769
-95.150543 -10.954109 1171.2532 1171.2532
6.5274734 -58.249836 1118.9794 1118.9794
-78.02211 -19.14856 1140.4526 1140.4526
-94.414894 11.509346 1169.1234 1169.1234
-44.860413 13.247559 1111.6143 1111.6143
36.860367 86.271637 1165.3804 1165.3804
62.836807 -68.595749 1163.3099 1163.3099
5.2575226 59.969543 1120.15 1120.15
12.026642 97.430878 1180.9584 1180.9584
-4.0587997 47.447388 1112.0667 1112.0667
-4.8252487 4.8560181 1100.2346 1100.2346
-53.603939 72.209961 1156.2697 1156.2697
-33.565933 -74.727097 1142.6486 1142.6486
43.343491 52.540329 1126.7821 1126.7821
60.790619 5.7761688 1120.8094 1120.8094
-42.973564 -82.100616 1162.4133 1162.4133
13.27494 44.736969 1111.5558 1111.5558
-58.50182 50.897476 1136.8574 1136.8574
-4.8968658 -34.835724 1106.3918 1106.3918
-39.274006 -72.093323 1142.9027 1142.9027
64.214508 -56.750847 1148.4652 1148.4652
-54.041817 62.25502 1143.3979 1143.3979
-93.034615 15.014755 1166.5468 1166.5468
-81.234734 40.946411 1158.4752 1158.4752
-17.454056 -73.725815 1134.7324 1134.7324
-8.1048279 69.331238 1128.3936 1128.3936
-81.209747 8.8996887 1142.3304 1142.3304
-64.577576 50.055313 1142.3441 1142.3441
54.688507 -59.562763 1141.166 1141.166
-33.568558 11.118225 1106.4611 1106.4611
18.775955 -79.545395 1142.3806 1142.3806
-16.293648 -98.564743 1195.5833 1195.5833
-75.210663 28.512497 1140.5829 1140.5829
-53.325783 -37.03714 1123.9434 1123.9434
80.003387 44.880066 1160.1849 1160.1849
44.763367 -4.6745224 1110.7006 1110.7006
18.103279 -74.179932 1135.4275 1135.4275
22.625778 -41.516312 1111.8838 1111.8838
32.696182 82.811218 1154.4669 1154.4669
23.877243 90.233887 1164.1151 1164.1151
43.97403 -21.890854 1112.8962 1112.8962
60.904587 -15.02224 1122.1221 1122.1221
-37.343876 -50.054886 1121.8978 1121.8978
-61.081856 76.836761 1180.892 1180.892
-16.904099 -78.827316 1140.835 1140.835
-68.753372 67.577164 1173.4237 1173.4237
-57.680271 41.550308 1129.6682 1129.6682
75.800949 10.481468 1135.6233 1135.6233
99.196213 -12.647316 1199.6047 1199.6047
24.736801 48.317581 1116.0149 1116.0149
38.949982 84.531235 1163.4299 1163.4299
3.991684 59.056778 1119.4 1119.4
45.126953 -26.195412 1114.6926 1114.6926
-39.6222 -91.321808 1190.4917 1190.4917
-10.030457 49.278427 1113.5649 1113.5649
-73.518661 50.329758 1154.5916 1154.5916
74.99353 38.721603 1146.366 1146.366
-5.1296387 -24.194267 1103.1067 1103.1067
55.521576 -28.188828 1121.7521 1121.7521
-2.0416031 -70.480255 1129.089 1129.089
68.5224 -63.971752 1165.182 1165.182
-59.344105 -52.079426 1138.6322 1138.6322
-50.633316 39.981308 1123.5947 1123.5947
96.104294 -19.637123 1180.5488 1180.5488
80.60907 45.909195 1162.6567 1162.6567
71.565323 7.7749252 1130.5885 1130.5885
-6.5085373 76.601639 1136.0482 1136.0482
-67.536301 -13.865189 1127.5665 1127.5665
-53.006149 -53.703854 1134.3781 1134.3781
-16.50013 29.417007 1105.8597 1105.8597
-26.035324 -31.381714 1108.6909 1108.6909
-19.36058 53.602066 1117.8296 1117.8296
-67.528481 -30.032227 1132.6355 1132.6355
35.517624 92.476624 1186.3408 1186.3408
65.207153 61.700058 1155.9418 1155.9418
-44.738625 -7.1214218 1110.8499 1110.8499
-32.818253 -62.488201 1129.1609 1129.1609
-21.338181 18.883957 1104.1455 1104.1455
-60.355934 -1.2607956 1120.2782 1120.2782
-53.191669 39.342056 1125.0144 1125.0144
-25.506424 58.78125 1123.2264 1123.2264
-23.56144 59.250015 1122.9656 1122.9656
-18.312088 -23.412811 1104.5195 1104.5195
-60.710926 -38.842571 1130.6787 1130.6787
-51.968243 13.643326 1115.6604 1115.6604
-80.449104 -56.567471 1181.8875 1181.8875
16.862823 87.809021 1155.2203 1155.2203
-42.947495 16.458618 1111.2046 1111.2046
46.807327 54.098404 1130.1256 1130.1256
22.560692 42.900345 1112.5325 1112.5325
-34.601776 -43.193085 1116.7109 1116.7109
10.672447 -58.114162 1119.3226 1119.3226
-2.899971 -22.27774 1102.5562 1102.5562
-60.529743 50.003952 1138.0665 1138.0665
41.569733 32.954575 1115.23 1115.23
-61.56472 -36.657219 1130.243 1130.243
74.626541 -14.62986 1135.0627 1135.0627
39.342392 46.126526 1120.4731 1120.4731
-31.562111 92.088455 1177.1188 1177.1188
-13.178947 46.806854 1112.619 1112.619
-27.358688 -8.3357468 1104.1771 1104.1771
-66.017288 -6.9012604 1125.2063 1125.2063
-45.24049 -22.267876 1113.6436 1113.6436
-13.680992 -5.0652847 1101.0698 1101.0698
-98.896584 -14.326485 1196.2294 1196.2294
57.884964 11.835754 1119.3201 1119.3201
49.523346 60.120682 1137.2869 1137.2869
9.6926117 69.688065 1128.9392 1128.9392
-12.910667 -52.076603 1115.6119 1115.6119
-52.262394 57.921783 1137.4403 1137.4403
84.020493 -28.698814 1153.9899 1153.9899
-95.677856 -6.4786682 1171.649 1171.649
49.49942 -23.434006 1116.3301 1116.3301
83.775253 -43.87133 1167.4883 1167.4883
-44.524681 -10.739288 1111.1056 1111.1056
-54.416271 38.626312 1125.5226 1125.5226
-44.103485 -30.513634 1115.5974 1115.5974
-63.778923 11.280106 1123.8094 1123.8094
-92.139626 -7.3731537 1161.8434 1161.8434
-99.442833 -6.9629593 1192.0854 1192.0854
14.19902 -81.527916 1143.861 1143.861
5.9067688 8.3148956 1100.5215 1100.5215
31.339325 82.039063 1152.1729 1152.1729
66.690353 -8.3446503 1125.9543 1125.9543
87.644333 -45.753616 1184.9974 1184.9974
-9.1230316 74.401718 1133.8097 1133.8097
4.2120438 27.024948 1103.8131 1103.8131
-71.084167 48.116943 1148.699 1148.699
47.683304 -55.038189 1131.4646 1131.4646
-27.45105 4.2477875 1103.9354 1103.9354
28.800751 17.517281 1105.853 1105.853
-24.185112 77.484451 1141.5942 1141.5942
49.563324 -68.266991 1146.3055 1146.3055
91.266708 -23.418877 1166.5045 1166.5045
39.898224 -80.289169 1155.708 1155.708
-8.6092682 12.020096 1101.099 1101.099
-16.662048 -49.586178 1114.7733 1114.7733
-35.046425 21.855057 1108.928 1108.928
-18.786911 -86.34201 1153.1801 1153.1801
14.363739 91.630722 1162.6169 1162.6169
-85.716385 -45.651096 1176.1531 1176.1531
30.362061 -70.172791 1135.5491 1135.5491
-66.310181 15.378639 1126.7439 1126.7439
-45.170837 -0.77960968 1110.7869 1110.7869
3.2124481 -92.45092 1162.0197 1162.0197
-11.40181 95.895569 1174.0377 1174.0377
5.8311691 82.02063 1143.0912 1143.0912
87.487152 16.864563 1154.5953 1154.5953
-33.816368 -11.551674 1106.6029 1106.6029
87.940247 39.704269 1173.7306 1173.7306
-43.457825 72.325241 1146.33 1146.33
26.279655 87.712143 1159.801 1159.801
17.424568 -17.372955 1103.0745 1103.0745
21.398926 2.1987076 1102.3412 1102.3412
10.083839 13.38208 1101.4138 1101.4138
6.2931442 -20.629257 1102.3535 1102.3535
-47.122402 34.983276 1119.0331 1119.0331
-72.045418 -10.684303 1131.4777 1131.4777
-17.604111 82.385773 1146.1235 1146.1235
50.254791 8.4227448 1113.9563 1113.9563
19.482819 -87.734726 1156.1476 1156.1476
-43.234646 -16.925568 1111.432 1111.432
-80.4655 -8.5269623 1141.2412 1141.2412
-40.971722 52.251678 1125.2264 1125.2264
23.990944 -1.575943 1102.9332 1102.9332
-96.930862 -16.701233 1181.959 1181.959
38.974655 75.42836 1147.165 1147.165
-32.293777 -2.0438461 1105.38 1105.38
-26.803543 -39.493858 1112.1262 1112.1262
20.952393 -80.208504 1144.0751 1144.0751
38.916809 -2.2507095 1107.9109 1107.9109
-29.4571 -57.634266 1123.7729 1123.7729
-11.837509 -67.454056 1127.1315 1127.1315
-81.361649 42.508759 1160.3353 1160.3353
38.799652 -17.432816 1109.4976 1109.4976
7.0752869 47.817596 1112.4591 1112.4591
19.583801 -30.812851 1106.9031 1106.9031
-3.176651 28.668259 1104.2501 1104.2501
82.718491 8.8123322 1144.5023 1144.5023
67.930573 23.220894 1130.3851 1130.3851
-57.727165 58.602371 1143.1376 1143.1376
23.004318 -18.773422 1104.5099 1104.5099
92.329361 -19.084038 1166.667 1166.667
4.6315689 0.29521942 1100.1078 1100.1078
24.799095 76.01561 1139.9447 1139.9447
-87.82814 -4.5004501 1152.3978 1152.3978
-64.56044 -0.87104797 1123.6378 1123.6378
24.079109 64.741562 1127.6901 1127.6901
-31.384972 4.0787659 1105.1404 1105.1404
-35.871445 -71.509018 1140.0024 1140.0024
-30.719879 44.247192 1115.7476 1115.7476
-17.597252 10.892715 1102.165 1102.165
20.333168 75.744781 1137.9574 1137.9574
53.043304 46.018524 1128.8052 1128.8052
38.336182 -73.969513 1144.6931 1144.6931
-26.342644 41.783981 1113.0508 1113.0508
5.387207 77.468643 1136.9954 1136.9954
-71.522308 -64.040787 1172.0118 1172.0118
-63.376682 -26.274422 1127.2466 1127.2466
17.770126 -27.773682 1105.5922 1105.5922
-94.286736 22.631073 1175.5491 1175.5491
-31.87516 53.544525 1121.7891 1121.7891
-87.48275 12.468735 1153.1887 1153.1887
88.663223 43.273392 1183.683 1183.683
82.452255 -27.206596 1150.3872 1150.3872
-62.872005 -30.752029 1128.5758 1128.5758
51.173019 -12.338799 1114.9761 1114.9761
-36.955906 78.049698 1149.5768 1149.5768
-43.537338 15.035309 1111.2394 1111.2394
31.804337 21.156334 1107.583 1107.583
89.378738 20.686493 1160.2067 1160.2067
90.452713 32.839493 1172.7993 1172.7993
13.531456 -11.426743 1101.5808 1101.5808
-53.491234 34.213989 1122.7466 1122.7466
6.6158981 -85.865692 1149.1737 1149.1737
-33.040695 -24.540703 1108.8624 1108.8624
-42.935509 69.382782 1142.1851 1142.1851
19.294266 -47.928791 1114.3813 1114.3813
-46.568138 75.111252 1153.2057 1153.2057
-16.59626 33.16423 1107.1307 1107.1307
21.679115 -49.220276 1115.6947 1115.6947
-55.142639 -12.249718 1117.4819 1117.4819
57.7771 8.2013245 1118.7932 1118.7932
-79.112473 25.01252 1144.1825 1144.1825
-14.131737 50.693542 1114.9679 1114.9679
25.565247 -46.871113 1115.4452 1115.4452
-12.027916 64.843536 1124.8292 1124.8292
-58.033035 -62.57119 1147.875 1147.875
-23.541931 6.637001 1103.0375 1103.0375
-78.236313 -54.364796 1169.6101 1169.6101
60.233063 40.383194 1131.1438 1131.1438
80.765518 29.473114 1148.9288 1148.9288
-62.095463 -74.125984 1174.5149 1174.5149
27.236977 -57.913345 1123.1613 1123.1613
13.265015 -28.744286 1105.1432 1105.1432
70.857819 -3.1233215 1129.506 1129.506
89.438934 -7.8627319 1155.9675 1155.9675
-93.63311 4.8311844 1165.2222 1165.2222
23.523949 -13.098541 1103.6929 1103.6929
-14.318237 15.668694 1102.2786 1102.2786
75.772491 27.091682 1140.632 1140.632
-68.76387 -63.762962 1165.2751 1165.2751
-94.886414 -21.363602 1176.7585 1176.7585
-8.5299759 18.616234 1102.119 1102.119
-91.121735 15.069878 1161.663 1161.663
-9.381691 81.648315 1143.0304 1143.0304
-51.58392 -58.85157 1137.7457 1137.7457
6.2968521 -28.413162 1104.3285 1104.3285
-61.837532 65.95578 1157.2688 1157.2688
-19.487717 67.966049 1129.2833 1129.2833
29.944962 -80.578415 1148.9077 1148.9077
22.662331 -5.3547592 1102.749 1102.749
-37.267178 -80.218262 1153.3503 1153.3503
-35.665199 9.5841904 1107.0692 1107.0692
80.808609 11.139366 1142.1564 1142.1564
-8.6227036 -25.221893 1103.6179 1103.6179
-32.510521 7.0941315 1105.6987 1105.6987
-62.534355 59.348526 1149.3324 1149.3324
4.5206909 51.578903 1114.4478 1114.4478
-33.381874 90.861206 1174.9023 1174.9023
12.654259 -67.402145 1127.2207 1127.2207
2.3322906 50.299103 1113.6023 1113.6023
89.838089 39.749451 1181.3158 1181.3158
37.094467 -67.107346 1135.8081 1135.8081
-5.2646103 -15.61692 1101.3674 1101.3674
40.46492 -83.715866 1163.2 1163.2
54.770081 49.55954 1132.5901 1132.5901
83.69606 16.691376 1147.8812 1147.8812
-17.916748 13.893387 1102.6041 1102.6041
-27.384064 -64.123413 1128.3181 1128.3181
90.163879 16.005157 1159.8215 1159.8215
-20.196709 92.367676 1167.4376 1167.4376
-76.518875 28.184494 1142.1166 1142.1166
54.279221 42.155792 1127.3594 1127.3594
-23.542725 51.385864 1117.5061 1117.5061
94.413605 20.578598 1174.2592 1174.2592
-64.532059 41.684341 1135.9841 1135.9841
34.484955 -6.9318924 1106.3905 1106.3905
-39.892052 5.6935043 1108.4784 1108.4784
24.294807 84.553574 1152.4558 1152.4558
38.818405 -64.631241 1134.3042 1134.3042
-46.273846 1.4435043 1111.3623 1111.3623
67.472977 21.883034 1129.5122 1129.5122
15.50425 12.37384 1101.9872 1101.9872
-4.4976425 9.7420959 1100.5774 1100.5774
-18.416008 91.382813 1163.8057 1163.8057
38.832825 -3.9158783 1107.9312 1107.9312
-34.898293 81.027084 1152.918 1152.918
-42.049145 85.43306 1169.454 1169.454
36.368149 87.901077 1169.1656 1169.1656
38.712524 -38.891285 1116.4009 1116.4009
-25.922386 70.592133 1134.0851 1134.0851
10.02877 68.48938 1127.8292 1127.8292
84.412415 -34.88633 1159.2877 1159.2877
24.39077 78.454208 1142.991 1142.991
-8.0737686 6.9770813 1100.5709 1100.5709
24.215714 -42.493839 1112.7769 1112.7769
14.418709 -76.096687 1136.7434 1136.7434
-42.85825 -59.548157 1132.05 1132.05
-46.507805 -86.583961 1181.5543 1181.5543
-60.580677 2.8778229 1120.4908 1120.4908
-84.925568 -49.795322 1182.448 1182.448
-7.8378601 73.805786 1132.983 1132.983
0.81777954 -3.1677628 1100.0535 1100.0535
-77.668243 46.779907 1157.8185 1157.8185
-62.650196 -55.396389 1145.1713 1145.1713
-32.229958 67.323639 1133.451 1133.451
-56.757172 -49.101471 1133.9116 1133.9116
0.67075348 -46.592911 1111.5204 1111.5204
-81.976006 40.705521 1159.7136 1159.7136
-12.590034 -77.93396 1138.6177 1138.6177
56.69902 33.679382 1124.8274 1124.8274
-77.519608 -22.989433 1141.1595 1141.1595
-34.426277 40.73587 1115.4103 1115.4103
13.182053 -27.875343 1104.8727 1104.8727
9.792244 -15.151726 1101.6407 1101.6407
-44.285095 -31.365707 1116.0059 1116.0059
-33.592415 7.2523956 1106.0907 1106.0907
19.518578 -17.139015 1103.4325 1103.4325
-2.5487671 -2.2994614 1100.059 1100.059
56.627106 -52.995144 1136.874 1136.874
13.512444 15.323708 1102.1093 1102.1093
-27.525124 51.98848 1119.1324 1119.1324
-58.243988 -35.006119 1126.6365 1126.6365
14.055458 60.569229 1121.6814 1121.6814
-7.9747391 -44.997807 1111.0529 1111.0529
-2.1163406 -98.081703 1180.6222 1180.6222
45.059113 -32.563461 1116.8778 1116.8778
98.273987 -8.1629257 1183.399 1183.399
-14.123993 0.31038666 1101.0029 1101.0029
46.702332 -57.944511 1133.2068 1133.2068
80.768829 -2.937294 1141.1123 1141.1123
80.20578 26.666435 1146.5591 1146.5591
29.522522 -93.103058 1178.5468 1178.5468
-32.223976 -74.298172 1141.3365 1141.3365
17.774223 -33.866287 1107.6033 1107.6033
44.531082 61.373444 1134.8058 1134.8058
-71.778221 -50.706776 1152.2852 1152.2852
32.376221 22.090469 1108.0011 1108.0011
14.40873 42.544525 1110.656 1110.656
29.496613 -75.245232 1141.1094 1141.1094
-45.804333 12.743721 1112.0253 1112.0253
-20.136765 -49.55407 1115.5079 1115.5079
-92.305099 30.831223 1176.9956 1176.9956
38.791565 52.033447 1123.9229 1123.9229
35.723846 -37.093216 1114.2802 1114.2802
43.696838 -3.7610474 1110.131 1110.131
-79.322441 -34.489105 1149.8158 1149.8158
3.6165085 -72.307388 1131.0177 1131.0177
-25.582199 78.885056 1144.1189 1144.1189
-26.132965 -39.482235 1111.9192 1111.9192
-28.940353 -88.540718 1163.627 1163.627
-55.625923 -55.408756 1138.0676 1138.0676
-76.127579 -25.7883 1140.5059 1140.5059
4.0858612 28.490143 1104.2314 1104.2314
87.449554 -0.16484833 1151.4969 1151.4969
14.229561 39.844208 1109.3911 1109.3911
39.562988 -46.524113 1120.8149 1120.8149
34.524277 -92.963936 1187.1244 1187.1244
94.864029 6.7024841 1169.0825 1169.0825
25.592567 12.319351 1104.1185 1104.1185
-29.656738 -63.686626 1128.8347 1128.8347
-59.97879 55.318512 1142.1864 1142.1864
52.697052 39.574951 1124.788 1124.788
60.212296 23.642921 1123.7406 1123.7406
2.782074 97.539291 1178.1289 1178.1289
34.651917 2.3241882 1106.2245 1106.2245
62.473465 -39.387512 1132.5782 1132.5782
-91.467285 -6.1330719 1160.0485 1160.0485
-3.0701904 -34.214943 1106.0856 1106.0856
-21.944778 0.11638641 1102.4376 1102.4376
71.818893 36.733353 1140.9009 1140.9009
11.960983 -7.4628677 1100.9988 1100.9988
59.378021 -27.405403 1124.3481 1124.3481
-44.557961 9.5041733 1110.9817 1110.9817
26.712975 -12.709793 1104.4758 1104.4758
-57.755672 -66.337852 1152.423 1152.423
-50.907806 -53.82811 1132.8365 1132.8365
-28.013405 27.592979 1108.0551 1108.0551
21.211624 54.53476 1118.9073 1118.9073
1.997673 39.07283 1107.9711 1107.9711
44.9655 -65.722511 1139.5132 1139.5132
-54.602489 -0.29682159 1116.2236 1116.2236
-19.156425 22.538063 1104.4747 1104.4747
-61.644318 71.153534 1166.2783 1166.2783
26.195526 34.409683 1109.8347 1109.8347
30.333954 25.084671 1108.0728 1108.0728
43.495941 85.72934 1172.4576 1172.4576
-12.832108 -32.610123 1106.3414 1106.3414
16.300522 18.971718 1103.1787 1103.1787
-19.333824 46.243408 1113.4683 1113.4683
19.107697 -48.242073 1114.5155 1114.5155
-76.888008 37.403732 1148.1426 1148.1426
-8.9680634 97.93721 1181.8926 1181.8926
33.744598 72.852676 1140.3864 1140.3864
-55.78764 68.356949 1152.9355 1152.9355
61.191803 -30.464111 1127.0103 1127.0103
-39.353268 -17.329224 1109.717 1109.717
32.380905 -78.403671 1147.0439 1147.0439
-72.618492 -29.325523 1137.8182 1137.8182
-71.553291 -6.0401993 1130.4037 1130.4037
-2.4410172 58.60318 1119.0079 1119.0079
18.136345 43.208603 1111.6592 1111.6592
6.36306 13.24781 1101.0858 1101.0858
78.555298 -32.00351 1147.0393 1147.0393
24.793388 39.213837 1111.4136 1111.4136
43.90834 -68.405098 1141.7522 1141.7522
-2.9440765 -11.613098 1100.7202 1100.7202
-67.093719 -13.395432 1127.0686 1127.0686
-52.143173 39.543167 1124.3864 1124.3864
42.851501 43.137619 1120.6093 1120.6093
-51.411797 69.582336 1149.849 1149.849
-80.17733 -28.641716 1147.5476 1147.5476
53.615768 -48.383938 1130.8311 1130.8311
-22.380363 42.212326 1112.1522 1112.1522
-74.986801 41.156677 1148.2013 1148.2013
57.652283 -25.476555 1122.3652 1122.3652
-24.788925 -16.631248 1104.5593 1104.5593
40.359512 26.318565 1112.3733 1112.3733
-92.242577 14.02478 1164.0193 1164.0193
11.176147 -26.726486 1104.288 1104.288
-32.125565 10.494408 1105.884 1105.884
-31.703308 -21.32383 1107.5868 1107.5868
-42.942154 -50.793224 1125.3273 1125.3273
-5.4718475 -6.521759 1100.363 1100.363
-54.75835 -72.004135 1157.3745 1157.3745
-47.243374 82.464188 1168.8917 1168.8917
44.888062 -75.544273 1152.2703 1152.2703
-65.394897 -60.020245 1153.9448 1153.9448
-4.3299408 7.5987854 1100.3832 1100.3832
-68.389374 -47.018166 1144.213 1144.213
-90.74765 -21.46225 1163.8857 1163.8857
68.752502 -21.990967 1130.7938 1130.7938
50.294571 -65.999245 1144.1918 1144.1918
48.562866 28.429855 1117.3357 1117.3357
-65.676773 -4.0759659 1124.7009 1124.7009
37.124954 37.991486 1115.2747 1115.2747
-6.2057571 83.687286 1145.6132 1145.6132
57.252777 -20.11985 1120.5184 1120.5184
-0.00099182129 -54.446716 1116.1218 1116.1218
26.798164 63.259857 1127.3361 1127.3361
86.852753 21.003975 1155.1064 1155.1064
-7.5380402 25.370316 1103.5659 1103.5659
81.194046 -53.941402 1177.6874 1177.6874
14.710747 -97.54557 1183.6154 1183.6154
-84.435219 -17.798386 1149.4637 1149.4637
-38.647606 78.420883 1151.4559 1151.4559
-14.69207 -24.944397 1104.2821 1104.2821
-16.704735 -32.354736 1106.865 1106.865
89.07077 36.304886 1172.6439 1172.6439
-48.391068 -10.592201 1113.1316 1113.1316
17.175003 67.031631 1127.8074 1127.8074
-80.62085 -35.842873 1152.9302 1152.9302
-33.653244 -35.294121 1112.6971 1112.6971
77.861435 28.779465 1144.2385 1144.2385
49.222702 -23.523666 1116.1921 1116.1921
-48.541439 55.546265 1132.4845 1132.4845
-24.053909 3.3796158 1102.9949 1102.9949
-45.39225 88.018631 1186.134 1186.134
57.468597 -36.638187 1126.8221 1126.8221
-76.108589 -29.661995 1142.3142 1142.3142
-27.362862 -67.806046 1131.7826 1131.7826
-21.706749 3.3150558 1102.4407 1102.4407
-73.976715 64.955505 1182.4436 1182.4436
26.794159 -41.971367 1113.2793 1113.2793
-61.781345 -28.628761 1126.7644 1126.7644
21.237671 -92.602829 1168.7963 1168.7963
93.037949 27.223991 1175.4481 1175.4481
-0.48126221 5.1633682 1100.1345 1100.1345
-73.98278 -48.188625 1153.049 1153.049
-61.051029 0.36703491 1120.8 1120.8
-78.046158 -2.7696762 1137.541 1137.541
-50.496639 -84.604973 1182.9094 1182.9094
-60.53661 -19.586906 1122.8529 1122.8529
-57.780632 -5.9051895 1118.5966 1118.5966
-54.551888 43.641846 1128.4495 1128.4495
47.050293 47.091049 1125.3762 1125.3762
10.590347 8.5047455 1100.9268 1100.9268
-0.67451477 -40.606911 1108.6183 1108.6183
-61.691574 -42.843937 1133.9807 1133.9807
65.072266 -13.54409 1125.2861 1125.2861
33.492386 -29.775307 1110.6038 1110.6038
-93.570313 -5.9594955 1165.2281 1165.2281
33.600006 53.106506 1122.2135 1122.2135
8.1191864 86.29863 1150.1339 1150.1339
96.119202 5.2544022 1172.917 1172.917
22.962967 38.789078 1110.7357 1110.7357
22.731506 75.802307 1138.8666 1138.8666
67.507889 -40.583981 1138.3914 1138.3914
-63.074612 36.775558 1131.6688 1131.6688
-2.5519638 2.5824661 1100.0659 1100.0659
-69.666946 36.713165 1138.3667 1138.3667
6.1032257 -19.375114 1102.085 1102.085
-81.928314 1.3959427 1142.6781 1142.6781
50.351639 -13.693794 1114.6935 1114.6935
67.428131 49.463394 1145.1655 1145.1655
-66.346252 -22.495811 1128.641 1128.641
32.945572 -51.340923 1120.7617 1120.7617
20.962105 37.496323 1109.6971 1109.6971
30.147247 77.96373 1145.111 1145.111
-33.671608 54.4646 1123.1897 1123.1897
40.742722 -75.568802 1148.7224 1148.7224
-13.634453 -96.912437 1179.4554 1179.4554
64.171677 -21.192345 1126.2919 1126.2919
47.527847 73.93721 1152.3094 1152.3094
96.00238 -8.7034836 1173.3956 1173.3956
-67.029678 46.083817 1141.8339 1141.8339
-15.815636 61.42865 1122.6929 1122.6929
58.141739 -54.569427 1139.6533 1139.6533
