# .PCD v0.7 - Point Cloud Data file format
VERSION 0.7
FIELDS x y z intensity
SIZE 4 4 4 4
TYPE F F F F
COUNT 1 1 1 1
WIDTH 1194
HEIGHT 1
VIEWPOINT 0 0 0 1 0 0 0
POINTS 1194
DATA ascii
96.823349 28.668259 1054.2501 1054.2501
182.71849 8.8123322 1094.5023 1094.5023
167.93057 23.220894 1080.3851 1080.3851
42.272835 58.602371 1093.1376 1093.1376
123.00432 -18.773422 1054.5099 1054.5099
192.32936 -19.084038 1116.667 1116.667
104.63157 0.29521942 1050.1078 1050.1078
124.7991 76.01561 1089.9447 1089.9447
12.17186 -4.5004501 1102.3978 1102.3978
35.43956 -0.87104797 1073.6378 1073.6378
124.07911 64.741562 1077.6901 1077.6901
68.615028 4.0787659 1055.1404 1055.1404
64.128555 -71.509018 1090.0024 1090.0024
69.280121 44.247192 1065.7476 1065.7476
82.402748 10.892715 1052.165 1052.165
120.33317 75.744781 1087.9574 1087.9574
153.0433 46.018524 1078.8052 1078.8052
138.33618 -73.969513 1094.6931 1094.6931
73.657356 41.783981 1063.0508 1063.0508
105.38721 77.468643 1086.9954 1086.9954
28.477692 -64.040787 1122.0118 1122.0118
36.623318 -26.274422 1077.2466 1077.2466
117.77013 -27.773682 1055.5922 1055.5922
5.7132611 22.631073 1125.5491 1125.5491
68.12484 53.544525 1071.7891 1071.7891
12.517248 12.468735 1103.1887 1103.1887
188.66322 43.273392 1133.683 1133.683
182.45226 -27.206596 1100.3872 1100.3872
37.127995 -30.752029 1078.5758 1078.5758
151.17302 -12.338799 1064.9761 1064.9761
63.044094 78.049698 1099.5768 1099.5768
56.462662 15.035309 1061.2394 1061.2394
131.80434 21.156334 1057.583 1057.583
189.37874 20.686493 1110.2067 1110.2067
190.45271 32.839493 1122.7993 1122.7993
113.53146 -11.426743 1051.5808 1051.5808
46.508766 34.213989 1072.7466 1072.7466
106.6159 -85.865692 1099.1737 1099.1737
66.959305 -24.540703 1058.8624 1058.8624
57.064491 69.382782 1092.1851 1092.1851
119.29427 -47.928791 1064.3813 1064.3813
53.431862 75.111252 1103.2057 1103.2057
83.40374 33.16423 1057.1307 1057.1307
121.67912 -49.220276 1065.6947 1065.6947
44.857361 -12.249718 1067.4819 1067.4819
157.7771 8.2013245 1068.7932 1068.7932
20.887531 25.01252 1094.1825 1094.1825
85.868263 50.693542 1064.9679 1064.9679
125.56525 -46.871113 1065.4452 1065.4452
87.972084 64.843536 1074.8292 1074.8292
41.966965 -62.57119 1097.875 1097.875
76.458069 6.637001 1053.0375 1053.0375
21.763683 -54.364796 1119.6101 1119.6101
160.23306 40.383194 1081.1438 1081.1438
180.76552 29.473114 1098.9288 1098.9288
37.904537 -74.125984 1124.5149 1124.5149
127.23698 -57.913345 1073.1613 1073.1613
113.26501 -28.744286 1055.1432 1055.1432
170.85782 -3.1233215 1079.506 1079.506
189.43893 -7.8627319 1105.9675 1105.9675
6.3668871 4.8311844 1115.2222 1115.2222
123.52395 -13.098541 1053.6929 1053.6929
85.681763 15.668694 1052.2786 1052.2786
175.77249 27.091682 1090.632 1090.632
31.23613 -63.762962 1115.2751 1115.2751
5.1135898 -21.363602 1126.7585 1126.7585
91.470024 18.616234 1052.119 1052.119
8.8782625 15.069878 1111.663 1111.663
90.618309 81.648315 1093.0304 1093.0304
48.41608 -58.85157 1087.7457 1087.7457
106.29685 -28.413162 1054.3285 1054.3285
38.162468 65.95578 1107.2688 1107.2688
80.512283 67.966049 1079.2833 1079.2833
129.94496 -80.578415 1098.9077 1098.9077
122.66233 -5.3547592 1052.749 1052.749
62.732822 -80.218262 1103.3503 1103.3503
64.334801 9.5841904 1057.0692 1057.0692
180.80861 11.139366 1092.1564 1092.1564
91.377296 -25.221893 1053.6179 1053.6179
67.489479 7.0941315 1055.6987 1055.6987
37.465645 59.348526 1099.3324 1099.3324
104.52069 51.578903 1064.4478 1064.4478
66.618126 90.861206 1124.9023 1124.9023
112.65426 -67.402145 1077.2207 1077.2207
102.33229 50.299103 1063.6023 1063.6023
189.83809 39.749451 1131.3158 1131.3158
137.09447 -67.107346 1085.8081 1085.8081
94.73539 -15.61692 1051.3674 1051.3674
140.46492 -83.715866 1113.2 1113.2
154.77008 49.55954 1082.5901 1082.5901
183.69606 16.691376 1097.8812 1097.8812
82.083252 13.893387 1052.6041 1052.6041
72.615936 -64.123413 1078.3181 1078.3181
190.16388 16.005157 1109.8215 1109.8215
79.803291 92.367676 1117.4376 1117.4376
23.481129 28.184494 1092.1166 1092.1166
154.27922 42.155792 1077.3594 1077.3594
76.457275 51.385864 1067.5061 1067.5061
194.4136 20.578598 1124.2592 1124.2592
35.467937 41.684341 1085.9841 1085.9841
134.48495 -6.9318924 1056.3905 1056.3905
60.107948 5.6935043 1058.4784 1058.4784
124.29481 84.553574 1102.4558 1102.4558
138.81841 -64.631241 1084.3042 1084.3042
53.726154 1.4435043 1061.3623 1061.3623
167.47298 21.883034 1079.5122 1079.5122
115.50425 12.37384 1051.9872 1051.9872
95.502357 9.7420959 1050.5774 1050.5774
81.583992 91.382813 1113.8057 1113.8057
138.83282 -3.9158783 1057.9312 1057.9312
65.101707 81.027084 1102.918 1102.918
57.950855 85.43306 1119.454 1119.454
136.36815 87.901077 1119.1656 1119.1656
138.71252 -38.891285 1066.4009 1066.4009
74.077614 70.592133 1084.0851 1084.0851
110.02877 68.48938 1077.8292 1077.8292
184.41241 -34.88633 1109.2877 1109.2877
124.39077 78.454208 1092.991 1092.991
91.926231 6.9770813 1050.5709 1050.5709
124.21571 -42.493839 1062.7769 1062.7769
114.41871 -76.096687 1086.7434 1086.7434
57.14175 -59.548157 1082.05 1082.05
53.492195 -86.583961 1131.5543 1131.5543
39.419323 2.8778229 1070.4908 1070.4908
15.074432 -49.795322 1132.448 1132.448
92.16214 73.805786 1082.983 1082.983
100.81778 -3.1677628 1050.0535 1050.0535
22.33176 46.779907 1107.8185 1107.8185
37.349804 -55.396389 1095.1713 1095.1713
67.770042 67.323639 1083.451 1083.451
43.242828 -49.101471 1083.9116 1083.9116
100.67075 -46.592911 1061.5204 1061.5204
18.023993 40.705521 1109.7136 1109.7136
87.409966 -77.93396 1088.6177 1088.6177
156.69902 33.679382 1074.8274 1074.8274
22.480392 -22.989433 1091.1595 1091.1595
65.573723 40.73587 1065.4103 1065.4103
113.18205 -27.875343 1054.8727 1054.8727
109.79224 -15.151726 1051.6407 1051.6407
55.714905 -31.365707 1066.0059 1066.0059
66.407585 7.2523956 1056.0907 1056.0907
119.51858 -17.139015 1053.4325 1053.4325
97.451233 -2.2994614 1050.059 1050.059
156.62711 -52.995144 1086.874 1086.874
113.51244 15.323708 1052.1093 1052.1093
72.474876 51.98848 1069.1324 1069.1324
41.756012 -35.006119 1076.6365 1076.6365
114.05546 60.569229 1071.6814 1071.6814
92.025261 -44.997807 1061.0529 1061.0529
97.883659 -98.081703 1130.6222 1130.6222
145.05911 -32.563461 1066.8778 1066.8778
198.27399 -8.1629257 1133.399 1133.399
85.876007 0.31038666 1051.0029 1051.0029
146.70233 -57.944511 1083.2068 1083.2068
180.76883 -2.937294 1091.1123 1091.1123
180.20578 26.666435 1096.5591 1096.5591
129.52252 -93.103058 1128.5468 1128.5468
67.776024 -74.298172 1091.3365 1091.3365
117.77422 -33.866287 1057.6033 1057.6033
144.53108 61.373444 1084.8058 1084.8058
28.221777 -50.706776 1102.2852 1102.2852
132.37622 22.090469 1058.0011 1058.0011
114.40873 42.544525 1060.656 1060.656
129.49661 -75.245232 1091.1094 1091.1094
54.195667 12.743721 1062.0253 1062.0253
79.863235 -49.55407 1065.5079 1065.5079
7.6948986 30.831223 1126.9956 1126.9956
138.79156 52.033447 1073.9229 1073.9229
135.72385 -37.093216 1064.2802 1064.2802
143.69684 -3.7610474 1060.131 1060.131
20.677559 -34.489105 1099.8158 1099.8158
103.61651 -72.307388 1081.0177 1081.0177
74.417801 78.885056 1094.1189 1094.1189
73.867035 -39.482235 1061.9192 1061.9192
71.059647 -88.540718 1113.627 1113.627
44.374077 -55.408756 1088.0676 1088.0676
23.872423 -25.7883 1090.5059 1090.5059
104.08586 28.490143 1054.2314 1054.2314
187.44955 -0.16484833 1101.4969 1101.4969
114.22956 39.844208 1059.3911 1059.3911
139.56299 -46.524113 1070.8149 1070.8149
134.52428 -92.963936 1137.1244 1137.1244
194.86403 6.7024841 1119.0825 1119.0825
125.59257 12.319351 1054.1185 1054.1185
70.343262 -63.686626 1078.8347 1078.8347
40.02121 55.318512 1092.1864 1092.1864
152.69705 39.574951 1074.788 1074.788
160.2123 23.642921 1073.7406 1073.7406
102.78207 97.539291 1128.1289 1128.1289
134.65192 2.3241882 1056.2245 1056.2245
162.47346 -39.387512 1082.5782 1082.5782
8.532711 -6.1330719 1110.0485 1110.0485
96.92981 -34.214943 1056.0856 1056.0856
78.055222 0.11638641 1052.4376 1052.4376
171.81889 36.733353 1090.9009 1090.9009
111.96098 -7.4628677 1050.9988 1050.9988
159.37802 -27.405403 1074.3481 1074.3481
55.442039 9.5041733 1060.9817 1060.9817
126.71297 -12.709793 1054.4758 1054.4758
42.244328 -66.337852 1102.423 1102.423
49.092194 -53.82811 1082.8365 1082.8365
71.986595 27.592979 1058.0551 1058.0551
121.21162 54.53476 1068.9073 1068.9073
101.99767 39.07283 1057.9711 1057.9711
144.9655 -65.722511 1089.5132 1089.5132
45.397511 -0.29682159 1066.2236 1066.2236
80.843575 22.538063 1054.4747 1054.4747
38.355682 71.153534 1116.2783 1116.2783
126.19553 34.409683 1059.8347 1059.8347
130.33395 25.084671 1058.0728 1058.0728
143.49594 85.72934 1122.4576 1122.4576
87.167892 -32.610123 1056.3414 1056.3414
116.30052 18.971718 1053.1787 1053.1787
80.666176 46.243408 1063.4683 1063.4683
119.1077 -48.242073 1064.5155 1064.5155
23.111992 37.403732 1098.1426 1098.1426
91.031937 97.93721 1131.8926 1131.8926
133.7446 72.852676 1090.3864 1090.3864
44.21236 68.356949 1102.9355 1102.9355
161.1918 -30.464111 1077.0103 1077.0103
60.646732 -17.329224 1059.717 1059.717
132.38091 -78.403671 1097.0439 1097.0439
27.38151 -29.325523 1087.8182 1087.8182
28.446711 -6.0401993 1080.4037 1080.4037
97.558983 58.60318 1069.0079 1069.0079
118.13634 43.208603 1061.6592 1061.6592
106.36306 13.24781 1051.0858 1051.0858
178.5553 -32.00351 1097.0393 1097.0393
124.79339 39.213837 1061.4136 1061.4136
143.90834 -68.405098 1091.7522 1091.7522
97.055923 -11.613098 1050.7202 1050.7202
32.906284 -13.395432 1077.0686 1077.0686
47.856827 39.543167 1074.3864 1074.3864
142.8515 43.137619 1070.6093 1070.6093
48.588203 69.582336 1099.849 1099.849
19.82267 -28.641716 1097.5476 1097.5476
153.61577 -48.383938 1080.8311 1080.8311
77.619637 42.212326 1062.1522 1062.1522
25.013199 41.156677 1098.2013 1098.2013
157.65228 -25.476555 1072.3652 1072.3652
75.211075 -16.631248 1054.5593 1054.5593
140.35951 26.318565 1062.3733 1062.3733
7.7574201 14.02478 1114.0193 1114.0193
111.17615 -26.726486 1054.288 1054.288
67.874435 10.494408 1055.884 1055.884
68.296692 -21.32383 1057.5868 1057.5868
57.057846 -50.793224 1075.3273 1075.3273
94.528152 -6.521759 1050.363 1050.363
45.24165 -72.004135 1107.3745 1107.3745
52.756626 82.464188 1118.8917 1118.8917
144.88806 -75.544273 1102.2703 1102.2703
34.605099 -60.020245 1103.9448 1103.9448
95.670059 7.5987854 1050.3832 1050.3832
31.610628 -47.018166 1094.213 1094.213
9.2523499 -21.46225 1113.8857 1113.8857
168.7525 -21.990967 1080.7938 1080.7938
150.29457 -65.999245 1094.1918 1094.1918
148.56287 28.429855 1067.3357 1067.3357
34.323223 -4.0759659 1074.7009 1074.7009
137.12495 37.991486 1065.2747 1065.2747
93.794243 83.687286 1095.6132 1095.6132
157.25278 -20.11985 1070.5184 1070.5184
99.999008 -54.446716 1066.1218 1066.1218
126.79816 63.259857 1077.3361 1077.3361
186.85275 21.003975 1105.1064 1105.1064
92.46196 25.370316 1053.5659 1053.5659
181.19405 -53.941402 1127.6874 1127.6874
114.71075 -97.54557 1133.6154 1133.6154
15.564783 -17.798386 1099.4637 1099.4637
61.352394 78.420883 1101.4559 1101.4559
85.30793 -24.944397 1054.2821 1054.2821
83.295265 -32.354736 1056.865 1056.865
189.07077 36.304886 1122.6439 1122.6439
51.608932 -10.592201 1063.1316 1063.1316
117.175 67.031631 1077.8074 1077.8074
19.379148 -35.842873 1102.9302 1102.9302
66.346756 -35.294121 1062.6971 1062.6971
177.86143 28.779465 1094.2385 1094.2385
149.2227 -23.523666 1066.1921 1066.1921
51.458561 55.546265 1082.4845 1082.4845
75.946091 3.3796158 1052.9949 1052.9949
54.60775 88.018631 1136.134 1136.134
157.4686 -36.638187 1076.8221 1076.8221
23.891413 -29.661995 1092.3142 1092.3142
72.637138 -67.806046 1081.7826 1081.7826
78.293251 3.3150558 1052.4407 1052.4407
26.023287 64.955505 1132.4436 1132.4436
126.79416 -41.971367 1063.2793 1063.2793
38.218655 -28.628761 1076.7644 1076.7644
121.23767 -92.602829 1118.7963 1118.7963
193.03795 27.223991 1125.4481 1125.4481
99.518738 5.1633682 1050.1345 1050.1345
26.017221 -48.188625 1103.049 1103.049
38.948971 0.36703491 1070.8 1070.8
21.953844 -2.7696762 1087.541 1087.541
49.503361 -84.604973 1132.9094 1132.9094
39.46339 -19.586906 1072.8529 1072.8529
42.219368 -5.9051895 1068.5966 1068.5966
45.448112 43.641846 1078.4495 1078.4495
147.05029 47.091049 1075.3762 1075.3762
110.59035 8.5047455 1050.9268 1050.9268
99.325485 -40.606911 1058.6183 1058.6183
38.308426 -42.843937 1083.9807 1083.9807
165.07227 -13.54409 1075.2861 1075.2861
133.49239 -29.775307 1060.6038 1060.6038
6.4296865 -5.9594955 1115.2281 1115.2281
133.60001 53.106506 1072.2135 1072.2135
108.11919 86.29863 1100.1339 1100.1339
196.1192 5.2544022 1122.917 1122.917
122.96297 38.789078 1060.7357 1060.7357
122.73151 75.802307 1088.8666 1088.8666
167.50789 -40.583981 1088.3914 1088.3914
36.925388 36.775558 1081.6688 1081.6688
97.448036 2.5824661 1050.0659 1050.0659
30.333052 36.713165 1088.3667 1088.3667
106.10323 -19.375114 1052.085 1052.085
18.071682 1.3959427 1092.6781 1092.6781
150.35164 -13.693794 1064.6935 1064.6935
167.42813 49.463394 1095.1655 1095.1655
33.653748 -22.495811 1078.641 1078.641
132.94557 -51.340923 1070.7617 1070.7617
120.9621 37.496323 1059.6971 1059.6971
130.14725 77.96373 1095.111 1095.111
66.328392 54.4646 1073.1897 1073.1897
140.74272 -75.568802 1098.7224 1098.7224
86.365547 -96.912437 1129.4554 1129.4554
164.17168 -21.192345 1076.2919 1076.2919
147.52785 73.93721 1102.3094 1102.3094
196.00238 -8.7034836 1123.3956 1123.3956
32.970318 46.083817 1091.8339 1091.8339
84.184364 61.42865 1072.6929 1072.6929
158.14174 -54.569427 1089.6533 1089.6533
75.30925 34.149841 1059.3129 1059.3129
172.87585 -64.784836 1127.8181 1127.8181
58.141869 55.784912 1078.3345 1078.3345
84.384361 -12.499077 1052.0208 1052.0208
97.93457 86.04744 1099.0925 1099.0925
183.23579 9.9191284 1095.4709 1095.4709
68.039909 -75.916573 1093.297 1093.297
109.77957 30.423218 1055.2435 1055.2435
35.426197 -49.622028 1091.9666 1091.9666
11.026174 -22.260361 1110.1486 1110.1486
84.66526 -73.469841 1083.9165 1083.9165
185.42574 18.178787 1101.2971 1101.2971
33.404873 0.21917725 1075.4008 1075.4008
40.315903 -8.0960312 1070.1736 1070.1736
44.676517 -55.474937 1087.8563 1087.8563
138.65457 -32.057228 1063.5237 1063.5237
78.143562 44.209015 1063.0066 1063.0066
70.268417 87.146255 1110.9928 1110.9928
44.673492 65.925293 1099.0801 1099.0801
84.937714 -94.138153 1119.8149 1119.8149
19.526907 32.692261 1100.4491 1100.4491
89.628098 -86.837151 1101.5054 1101.5054
110.59947 -6.9908524 1050.8093 1050.8093
168.31189 16.580132 1078.8762 1078.8762
52.330708 -15.119537 1063.4031 1063.4031
118.7883 -21.933067 1054.2611 1054.2611
152.22816 46.685028 1078.6367 1078.6367
194.9104 14.45768 1122.0181 1122.0181
102.10616 49.816208 1063.3171 1063.3171
99.814178 37.475601 1057.2878 1057.2878
133.00186 -46.037514 1067.5898 1067.5898
101.75908 29.964478 1054.6111 1054.6111
140.19696 -58.614342 1079.6539 1079.6539
29.02512 52.18602 1102.6799 1102.6799
65.699043 -53.69006 1072.9232 1072.9232
175.51447 -13.415558 1085.8315 1085.8315
72.777275 90.84552 1118.2822 1118.2822
96.093552 40.886856 1058.8243 1058.8243
162.53746 -57.072948 1096.7859 1096.7859
150.62187 50.932144 1080.4059 1080.4059
23.983313 -5.4428101 1085.2556 1085.2556
77.79834 95.191406 1128.8888 1128.8888
91.757324 82.053329 1093.4376 1093.4376
136.97812 -43.497807 1067.899 1067.899
80.2201 -86.483124 1103.8542 1103.8542
157.76373 -63.212109 1098.3513 1098.3513
155.39034 -16.112175 1068.3158 1068.3158
73.979004 -78.753159 1094.1355 1094.1355
56.165367 -79.208473 1107.5201 1107.5201
124.12263 -10.077286 1053.4778 1053.4778
136.57535 41.064758 1066.478 1066.478
137.43965 7.985878 1057.6177 1057.6177
68.820839 -78.001556 1095.7449 1095.7449
155.81024 39.982529 1077.2909 1077.2909
175.89409 -23.754501 1089.3716 1089.3716
141.11324 77.219803 1101.5562 1101.5562
184.66609 29.70311 1105.8483 1105.8483
57.468086 -71.310059 1094.2693 1094.2693
41.010677 -28.442986 1074.4271 1074.4271
54.391087 35.979568 1068.604 1068.604
20.022991 -19.47467 1093.2161 1093.2161
171.73563 43.542725 1095.6122 1095.6122
169.07689 5.5119247 1077.9028 1077.9028
43.980209 -23.676476 1070.6199 1070.6199
128.21201 77.774094 1093.8281 1093.8281
125.30271 80.491943 1096.3268 1096.3268
172.89819 -21.263351 1084.933 1084.933
99.755135 -70.041237 1078.6266 1078.6266
183.24471 14.132713 1096.4221 1096.4221
172.34375 -18.725029 1083.5488 1083.5488
61.56023 -67.474701 1086.9956 1086.9956
73.409454 40.591034 1062.5625 1062.5625
88.630936 46.429657 1062.1648 1062.1648
143.77589 26.979538 1064.2341 1064.2341
84.347824 32.099075 1056.5941 1056.5941
164.57799 -5.5867233 1073.8523 1073.8523
117.30201 -23.102348 1054.256 1054.256
143.52914 39.722412 1069.208 1069.208
58.782612 -30.996384 1064.3241 1064.3241
71.094528 38.215744 1062.2274 1062.2274
31.068342 -24.482597 1081.8162 1081.8162
127.68368 -56.554077 1072.3131 1072.3131
194.16139 0.68904114 1116.3376 1116.3376
90.111633 -80.542931 1091.5615 1091.5615
28.896158 -20.608475 1082.7725 1082.7725
111.61957 -30.041183 1055.3295 1055.3295
172.88263 -11.48806 1082.5007 1082.5007
47.075809 53.882233 1084.4581 1084.4581
100.84339 47.668549 1062.0967 1062.0967
134.39255 9.0365067 1056.5361 1056.5361
51.110123 80.271561 1115.8495 1115.8495
102.37371 36.035507 1056.7487 1056.7487
140.18399 -87.750053 1123.8241 1123.8241
168.56265 26.381668 1082.1533 1082.1533
62.905739 46.908081 1069.8523 1069.8523
22.91857 -33.635239 1095.8971 1095.8971
158.75288 -67.048187 1104.694 1104.694
21.137363 -29.912224 1096.2791 1096.2791
136.356 -91.899879 1134.7471 1134.7471
137.13403 91.724777 1135.5907 1135.5907
72.075577 14.217461 1055.0364 1055.0364
73.449402 25.089706 1056.9109 1056.9109
142.22011 -86.737206 1123.6538 1123.6538
169.69879 -54.6045 1103.5197 1103.5197
79.683907 79.419678 1092.7307 1092.7307
136.20004 40.319519 1065.953 1065.953
116.37329 -79.369476 1091.4133 1091.4133
79.293983 58.77626 1071.7913 1071.7913
89.802223 -57.202984 1068.6132 1068.6132
58.921158 -15.708031 1060.1903 1060.1903
138.58296 13.035034 1058.6685 1058.6685
90.887352 94.344421 1118.1238 1118.1238
55.916893 -59.779305 1083.0439 1083.0439
59.261948 78.615646 1103.5243 1103.5243
193.74115 34.51123 1145.3555 1145.3555
39.7658 -49.331409 1087.2445 1087.2445
87.661949 94.415695 1119.4476 1119.4476
150.52013 3.0453339 1063.7535 1063.7535
150.23851 -46.315182 1076.9863 1076.9863
56.394745 22.551598 1062.8794 1062.8794
136.04916 5.1532135 1056.8662 1056.8662
21.236267 -54.334335 1120.9474 1120.9474
103.2606 3.7513962 1050.1235 1050.1235
133.02751 -88.083817 1116.082 1116.082
158.10034 -55.6866 1090.6422 1090.6422
181.93968 50.550461 1122.9716 1122.9716
109.36109 33.934784 1056.4009 1056.4009
84.319344 41.674667 1060.4604 1060.4604
55.602318 -22.771744 1063.338 1063.338
43.747349 18.461945 1069.4097 1069.4097
22.945324 -2.4661407 1086.3093 1086.3093
142.28209 -77.12648 1102.4213 1102.4213
152.0611 -55.536686 1085.1516 1085.1516
148.4021 22.68708 1065.4865 1065.4865
87.936249 -15.430779 1051.937 1051.937
4.314569 -15.884727 1125.6694 1125.6694
91.257744 -0.16311646 1050.3831 1050.3831
147.11926 -18.735191 1063.8097 1063.8097
102.76714 88.344757 1103.2288 1103.2288
102.59752 -90.750275 1108.0758 1108.0758
104.444 39.769714 1058.356 1058.356
179.73941 -26.262764 1095.6687 1095.6687
184.98859 -29.53817 1106.3601 1106.3601
68.333183 2.7521362 1055.1863 1055.1863
173.96454 28.045624 1088.8225 1088.8225
66.628326 39.039719 1064.1965 1064.1965
87.373276 -62.390198 1072.8766 1072.8766
123.19546 18.839058 1054.5691 1054.5691
78.171631 -16.818604 1053.8717 1053.8717
58.386261 -7.2535706 1059.3596 1059.3596
97.699547 -91.591919 1109.9297 1109.9297
133.47118 -70.463005 1087.4329 1087.4329
150.81889 29.941788 1069.2477 1069.2477
72.471832 -52.537769 1069.4893 1069.4893
52.6464 -68.679649 1094.8571 1094.8571
77.592812 -40.733101 1061.4634 1061.4634
42.909241 -33.751701 1075.157 1075.157
49.550499 -11.603027 1064.4418 1064.4418
163.92679 51.915604 1093.2714 1093.2714
189.36868 4.7139969 1105.3792 1105.3792
42.864754 -56.670208 1090.6362 1090.6362
98.165962 -55.515926 1066.8458 1066.8458
161.175 -22.436615 1074.1434 1074.1434
26.309994 57.011658 1113.6757 1113.6757
2.9517748 -9.2743759 1127.7373 1127.7373
121.87282 -18.873512 1054.264 1054.264
118.90365 -32.452026 1057.3203 1057.3203
82.908646 65.096115 1076.038 1076.038
166.86388 44.931747 1090.7517 1090.7517
132.98228 -74.077042 1091.4785 1091.4785
127.87321 -72.001099 1086.4475 1086.4475
129.38783 -88.810204 1114.6573 1114.6573
97.278954 87.545593 1101.7468 1101.7468
96.550941 66.013168 1074.9642 1074.9642
191.49248 20.824394 1115.4244 1115.4244
164.8058 -15.398323 1075.4138 1075.4138
21.025114 27.272629 1095.053 1095.053
57.636845 55.332703 1078.2808 1078.2808
113.74422 -6.4845657 1051.1615 1051.1615
168.974 25.698135 1082.3081 1082.3081
137.47913 25.200478 1060.7798 1060.7798
20.789244 19.77652 1092.2545 1092.2545
158.09329 18.072639 1070.6366 1070.6366
120.96312 -74.195297 1086.3164 1086.3164
146.43329 25.388168 1065.1508 1065.1508
21.501125 10.468803 1088.9399 1088.9399
52.902061 75.894028 1105.0347 1105.0347
144.46423 -42.825092 1071.3302 1071.3302
9.1561337 -28.787399 1119.6903 1119.6903
68.478691 -94.823959 1146.1498 1146.1498
139.96159 -5.8848953 1058.5209 1058.5209
85.927185 -82.057617 1094.606 1094.606
40.406216 42.058105 1081.5917 1081.5917
7.8481293 24.844765 1120.1542 1120.1542
104.78891 -75.541824 1084.651 1084.651
94.083359 -60.915451 1070.9159 1070.9159
58.82312 -61.167557 1082.4501 1082.4501
148.47565 -7.8286743 1062.8861 1062.8861
126.96642 -91.536186 1120.1012 1120.1012
97.122063 -67.079895 1075.892 1075.892
84.651199 67.133392 1077.4912 1077.4912
86.791801 -18.474098 1052.6129 1052.6129
88.716965 -63.375824 1073.4742 1073.4742
99.549225 10.043968 1050.5067 1050.5067
50.977356 13.998665 1063.972 1063.972
84.27581 -63.72942 1074.5592 1074.5592
62.21283 41.483841 1067.2279 1067.2279
127.53391 -75.836548 1090.9178 1090.9178
32.582993 -54.326992 1099.9647 1099.9647
55.935593 -27.042023 1064.4017 1064.4017
109.35828 96.498108 1125.4941 1125.4941
122.12309 -60.08363 1073.1851 1073.1851
77.354828 20.376434 1054.7529 1054.7529
77.393684 70.215744 1082.4818 1082.4818
185.45587 25.452873 1104.7292 1104.7292
89.709618 -53.785194 1066.3264 1066.3264
33.616737 30.173569 1081.5688 1081.5688
105.97758 64.876312 1074.1361 1074.1361
138.26215 36.317505 1065.0468 1065.0468
80.074448 -65.253342 1076.8906 1076.8906
40.367085 73.986313 1118.8561 1118.8561
136.34785 4.0500641 1056.9279 1056.9279
40.59549 -12.485977 1070.5317 1070.5317
182.00481 -8.4275284 1093.3944 1093.3944
53.280544 21.383072 1064.2092 1064.2092
118.53994 80.978012 1094.3329 1094.3329
123.09077 63.795197 1076.5358 1076.5358
168.65953 52.247849 1099.4427 1099.4427
127.33904 38.617096 1061.9017 1061.9017
139.54503 -17.475304 1059.829 1059.829
111.88315 -25.524918 1054.0455 1054.0455
166.60712 71.258774 1127.9619 1127.9619
45.716942 42.161209 1077.3655 1077.3655
139.03958 35.54985 1065.0758 1065.0758
60.459541 6.8164978 1058.4026 1058.4026
54.560841 21.847847 1063.6405 1063.6405
92.851662 -4.9541702 1050.3789 1050.3789
179.54384 24.06694 1094.3802 1094.3802
39.391273 -61.30521 1099.322 1099.322
87.349854 45.631546 1061.922 1061.922
105.31229 -42.901028 1059.8264 1059.8264
92.180138 85.784851 1099.2081 1099.2081
135.54037 -4.4606247 1056.6353 1056.6353
183.96722 -19.538773 1099.3271 1099.3271
173.17821 -48.539333 1102.1577 1102.1577
190.04218 -19.951691 1111.3434 1111.3434
57.424145 -5.5233231 1059.6851 1059.6851
75.720985 56.746017 1071.3208 1071.3208
130.6871 -1.2734451 1054.8334 1054.8334
59.27483 40.087341 1067.9362 1067.9362
64.397278 -43.513054 1067.3014 1067.3014
50.100307 -80.975311 1119.129 1119.129
184.53598 -9.2703094 1097.3907 1097.3907
190.6734 10.430946 1109.1401 1109.1401
114.50391 -60.436337 1071.6604 1071.6604
116.43227 -35.639618 1058.0228 1058.0228
99.452026 -36.374535 1056.8518 1056.8518
63.365543 -54.158092 1074.3375 1074.3375
2.5802753 11.089996 1130.3427 1130.3427
171.90875 6.0009232 1080.7676 1080.7676
156.14066 -24.29142 1070.8915 1070.8915
47.419704 -1.280426 1064.949 1064.949
27.452192 -27.456894 1086.8895 1086.8895
30.921394 40.219177 1089.912 1089.912
144.74348 73.512299 1099.0691 1099.0691
74.01107 50.178986 1067.4976 1067.4976
18.862356 47.361176 1115.7422 1115.7422
54.190655 -31.77549 1066.983 1066.983
95.461037 -91.803886 1110.6116 1110.6116
35.126263 -7.5865631 1074.2778 1074.2778
66.489563 16.331123 1057.208 1057.208
44.010593 -69.098541 1104.2771 1104.2771
90.136162 73.67247 1083.104 1083.104
63.189922 24.12516 1060.2058 1060.2058
178.13101 32.821838 1096.9126 1096.9126
160.72479 10.866127 1071.2953 1071.2953
140.91734 -25.453636 1062.3765 1062.3765
121.98071 23.397934 1055.2932 1055.2932
186.29514 6.4058456 1099.879 1099.879
116.29064 -26.246437 1054.8909 1054.8909
81.895874 -95.887856 1128.1423 1128.1423
105.50548 59.909439 1070.1217 1070.1217
14.77183 12.935898 1099.3164 1099.3164
64.653069 -69.766769 1087.6847 1087.6847
126.61036 46.357437 1065.4845 1065.4845
188.21762 43.042938 1130.8961 1130.8961
47.968403 -37.950527 1073.4985 1073.4985
142.78822 -77.595444 1103.6522 1103.6522
70.024651 47.88475 1067.4862 1067.4862
138.37152 42.644073 1068.0908 1068.0908
95.423149 20.815239 1052.2975 1052.2975
156.21849 -1.3670044 1067.3102 1067.3102
188.63556 -15.650352 1106.4247 1106.4247
41.41222 17.854965 1070.9514 1070.9514
107.89877 -85.651955 1098.9966 1098.9966
49.211086 -72.688004 1103.7729 1103.7729
128.4991 34.363419 1060.5184 1060.5184
86.434853 58.12326 1069.7649 1069.7649
138.32034 3.6381607 1057.7053 1057.7053
131.94954 -62.161785 1078.4797 1078.4797
124.28616 -40.736115 1061.9617 1061.9617
10.357265 -20.878716 1110.907 1110.907
35.223644 70.863205 1122.0281 1122.0281
131.68575 -68.832245 1084.7456 1084.7456
97.636612 55.002136 1066.5184 1066.5184
172.3394 5.8010788 1081.2006 1081.2006
63.363922 6.937027 1057.2117 1057.2117
51.338493 -17.547043 1064.4187 1064.4187
184.78424 43.064377 1119.0631 1119.0631
17.831207 2.8036575 1093.0752 1093.0752
88.102509 31.48616 1055.8348 1055.8348
71.957855 -36.884869 1061.3821 1061.3821
76.136604 -66.76622 1079.4818 1079.4818
151.92426 72.879288 1105.3628 1105.3628
159.87921 -28.627739 1075.2007 1075.2007
61.546497 87.31572 1120.0452 1120.0452
81.16452 70.483444 1081.6091 1081.6091
113.00816 -72.110611 1081.9497 1081.9497
99.787346 86.241455 1099.3801 1099.3801
126.54995 -5.1687622 1053.7275 1053.7275
75.80442 72.557587 1085.5797 1085.5797
171.282 65.003204 1123.6664 1123.6664
86.47403 2.3736496 1050.9474 1050.9474
39.321743 -77.328812 1131.6042 1131.6042
11.670059 -11.155037 1104.4656 1104.4656
54.302437 -2.7112808 1061.0934 1061.0934
54.202534 -65.639023 1090.0491 1090.0491
147.3764 -28.811058 1066.781 1066.781
145.73761 62.842957 1087.0807 1087.0807
65.794243 12.288574 1056.8391 1056.8391
126.86174 -61.227135 1075.6382 1075.6382
96.948128 -27.556763 1053.9203 1053.9203
39.499008 -31.877838 1077.0381 1077.0381
94.767792 77.170914 1086.618 1086.618
183.08653 -7.6078644 1094.8751 1094.8751
25.373034 -27.953651 1089.5897 1089.5897
158.11139 78.834854 1129.7977 1129.7977
149.04425 59.138123 1085.9895 1085.9895
179.43652 30.145889 1097.2642 1097.2642
32.517639 -19.376526 1078.7913 1078.7913
30.558559 -20.044518 1080.8906 1080.8906
161.66466 -52.008926 1090.9022 1090.9022
153.82823 43.778961 1077.9867 1077.9867
76.262459 96.210587 1136.5817 1136.5817
44.387089 78.210114 1121.8862 1121.8862
173.41751 15.594719 1083.9192 1083.9192
55.108517 -33.290558 1067.0753 1067.0753
58.403164 63.896713 1085.2937 1085.2937
129.93784 -91.487663 1122.9125 1122.9125
44.672878 -70.719093 1105.9805 1105.9805
72.635582 -87.124268 1109.2501 1109.2501
132.0128 -13.452522 1056.2225 1056.2225
120.50198 -76.493858 1088.9397 1088.9397
141.69292 53.507156 1076.5243 1076.5243
103.5015 10.388733 1050.6028 1050.6028
50.920952 -2.9974136 1062.9238 1062.9238
113.33038 -33.982925 1056.9008 1056.9008
56.305416 15.703308 1061.4326 1061.4326
11.426944 -39.963062 1126.3829 1126.3829
54.327774 62.429993 1086.6238 1086.6238
53.269566 14.905045 1062.8558 1062.8558
66.92321 87.939377 1115.7568 1115.7568
105.66277 -95.985077 1122.5264 1122.5264
156.86371 39.010544 1077.5797 1077.5797
38.600155 -3.0993195 1071.1301 1071.1301
135.63408 52.703903 1072.8475 1072.8475
58.525391 4.4666443 1059.116 1059.116
136.93738 68.298309 1086.9844 1086.9844
183.9966 -7.1193695 1096.2052 1096.2052
61.043312 -9.8252106 1058.4258 1058.4258
161.27017 76.616394 1130.6121 1130.6121
90.946564 -48.332184 1062.9252 1062.9252
30.142889 -32.109276 1086.0549 1086.0549
133.31772 48.963425 1069.4238 1069.4238
144.62915 -56.352486 1080.4828 1080.4828
81.976334 19.422424 1053.5743 1053.5743
15.695247 23.228203 1101.4906 1101.4906
160.79716 55.358917 1093.0869 1093.0869
152.57346 24.125984 1068.4281 1068.4281
74.486328 -96.445244 1143.1176 1143.1176
93.425064 -20.055405 1052.2526 1052.2526
93.950996 58.074188 1068.8163 1068.8163
111.27773 -52.479763 1065.6277 1065.6277
113.86543 -78.611496 1089.7672 1089.7672
19.962915 5.2639465 1090.281 1090.281
163.9507 74.754395 1132.0532 1132.0532
112.6205 43.109619 1060.6564 1060.6564
13.26638 -11.773697 1101.6403 1101.6403
108.19548 97.574997 1129.7034 1129.7034
145.99095 -0.50669861 1061.2048 1061.2048
83.728989 -24.729164 1054.4818 1054.4818
141.70244 -57.144817 1079.322 1079.322
150.44704 60.366821 1088.2672 1088.2672
144.68713 19.039406 1062.5897 1062.5897
49.070393 -7.5557861 1064.2732 1064.2732
131.36996 -4.0390091 1055.1337 1055.1337
155.52573 -81.077103 1131.469 1131.469
105.60931 75.202133 1084.3252 1084.3252
81.919952 -13.958267 1052.6436 1052.6436
53.607643 77.062164 1106.3059 1106.3059
77.526787 81.716888 1096.9218 1096.9218
160.27786 -42.29483 1082.3411 1082.3411
119.87267 -27.648506 1055.9753 1055.9753
32.690105 35.564484 1085.1575 1085.1575
23.218655 -4.2202072 1086.0718 1086.0718
100.86892 -51.806049 1064.47 1064.47
67.763321 -59.302063 1076.2161 1076.2161
84.461594 -90.099541 1109.4952 1109.4952
83.92614 -78.910789 1090.715 1090.715
97.903099 55.808365 1067.048 1067.048
95.998634 5.4208527 1050.2273 1050.2273
142.54611 67.638596 1089.8763 1089.8763
61.063511 -35.85408 1065.1564 1065.1564
90.107117 29.884796 1055.0841 1055.0841
87.634506 -8.2536621 1051.1113 1051.1113
31.644461 -30.963379 1083.9032 1083.9032
6.3361964 24.498985 1124.9622 1124.9622
142.39401 39.382477 1068.4417 1068.4417
91.804184 94.558136 1118.5105 1118.5105
177.3893 51.803345 1113.5677 1113.5677
134.87576 -58.529251 1076.8016 1076.8016
135.07539 68.645859 1086.3018 1086.3018
63.920765 51.769608 1072.423 1072.423
22.102203 20.178619 1090.6304 1090.6304
36.113213 -11.833206 1073.9839 1073.9839
17.789347 44.621246 1114.6396 1114.6396
65.857559 -17.02169 1057.5632 1057.5632
97.519196 -94.982826 1118.8213 1118.8213
117.32116 63.987595 1075.1296 1075.1296
103.63916 22.225914 1052.5692 1052.5692
178.01364 -17.818428 1090.0303 1090.0303
83.209991 47.795792 1063.7814 1063.7814
37.485626 -24.861755 1076.0145 1076.0145
68.795166 70.779282 1086.6238 1086.6238
128.98427 -18.637993 1056.1249 1056.1249
151.9053 -67.81591 1097.9727 1097.9727
176.53905 -26.434532 1091.323 1091.323
131.33286 54.740662 1072.4003 1072.4003
107.57775 -9.2033844 1050.7131 1050.7131
47.899296 32.264557 1070.9778 1070.9778
166.07893 -17.969727 1077.1257 1077.1257
71.20256 44.971222 1065.4524 1065.4524
100.33001 -87.79937 1102.1339 1102.1339
38.133381 49.25 1088.7876 1088.7876
171.74113 6.5205002 1080.6409 1080.6409
73.157722 -10.22197 1054.2137 1054.2137
129.99489 -35.157738 1061.3195 1061.3195
154.35596 -10.105339 1066.6735 1066.6735
30.348661 -6.5850372 1078.5485 1078.5485
46.304089 -84.329361 1147.6959 1147.6959
95.235962 64.141434 1073.4286 1073.4286
0.69568163 -0.76270294 1138.2498 1138.2498
56.844837 52.295349 1076.4961 1076.4961
66.77858 34.402664 1062.1775 1062.1775
77.563484 -3.150116 1052.6005 1052.6005
133.38113 0.74049377 1055.7389 1055.7389
67.408089 79.102966 1098.2266 1098.2266
140.70799 -27.995285 1063.0568 1063.0568
57.185669 83.134811 1114.5664 1114.5664
159.78238 25.587257 1074.0305 1074.0305
57.353813 -31.493912 1065.2095 1065.2095
123.1604 -56.514999 1070.8188 1070.8188
160.1609 -75.124184 1122.8518 1122.8518
84.158005 -20.104263 1053.3313 1053.3313
14.022186 -10.083183 1099.9386 1099.9386
141.54431 -15.782944 1060.4178 1060.4178
41.029274 -12.696327 1070.2426 1070.2426
56.64431 -83.553452 1116.2494 1116.2494
54.573147 -10.690033 1061.5573 1061.5573
65.052223 39.735764 1065.1488 1065.1488
166.05025 65.056793 1112.517 1112.517
71.808037 7.409874 1054.3428 1054.3428
133.54903 82.28479 1104.1342 1104.1342
163.50345 70.670914 1118.8081 1118.8081
75.334946 -95.711411 1134.8026 1134.8026
77.400177 67.18158 1079.4601 1079.4601
74.164932 -6.8036346 1053.6348 1053.6348
94.485016 32.041443 1055.433 1055.433
92.220566 48.34082 1062.8069 1062.8069
31.360023 -14.004112 1078.6387 1078.6387
170.9315 -38.069801 1090.6754 1090.6754
95.071609 -85.386032 1098.1836 1098.1836
153.23404 62.666122 1093.0869 1093.0869
163.57544 -54.602604 1095.4407 1095.4407
64.889458 -42.002754 1066.3159 1066.3159
116.73472 52.033752 1066.2598 1066.2598
92.194878 -61.992264 1071.9229 1071.9229
123.11232 3.7997971 1052.7817 1052.7817
69.755615 39.734207 1063.3601 1063.3601
158.36958 -17.419113 1070.6932 1070.6932
191.62071 14.164581 1112.5166 1112.5166
71.212204 -67.381348 1081.9485 1081.9485
99.302567 93.541534 1114.6519 1114.6519
120.35164 -83.588326 1099.0215 1099.0215
109.99354 -40.183987 1058.976 1058.976
93.084351 63.148529 1072.7703 1072.7703
181.2334 46.904114 1115.3425 1115.3425
89.701675 65.037338 1074.7399 1074.7399
52.723537 -12.258507 1062.7379 1062.7379
140.84464 -63.768337 1084.6907 1084.6907
27.664576 27.361298 1086.6049 1086.6049
24.533447 -37.973911 1096.495 1096.495
160.40848 -66.657654 1106.3242 1106.3242
51.478737 58.415909 1084.9364 1084.9364
177.24956 21.586349 1090.2795 1090.2795
65.209137 -59.771557 1077.7715 1077.7715
31.845533 -15.984177 1078.5894 1078.5894
91.735634 -98.256699 1133.347 1133.347
30.075058 23.578087 1082.5125 1082.5125
113.59923 45.205429 1061.8438 1061.8438
170.67979 -31.782814 1086.8002 1086.8002
135.77699 -91.347954 1130.6206 1130.6206
78.488335 9.0421524 1052.7606 1052.7606
124.62579 57.583237 1072.0402 1072.0402
86.607994 62.846451 1073.3777 1073.3777
70.855873 -64.56266 1079.4147 1079.4147
27.72032 -0.73080444 1080.8978 1080.8978
15.737271 -46.659573 1123.1173 1123.1173
53.026791 -59.2547 1084.5599 1084.5599
23.133999 -48.236698 1107.99 1107.99
45.842915 -27.642456 1070.6091 1070.6091
152.61256 -62.2178 1092.0271 1092.0271
87.572166 65.972977 1075.8844 1075.8844
119.92898 -16.037247 1053.3271 1053.3271
1.1001199 7.8438034 1137.4585 1137.4585
198.41098 14.651321 1139.9691 1139.9691
112.26813 79.51445 1090.6119 1090.6119
171.50865 63.020248 1119.7517 1119.7517
58.645981 -88.631599 1129.1605 1129.1605
61.485161 67.577866 1087.1522 1087.1522
91.433594 -28.866707 1054.641 1054.641
157.77528 -2.9276657 1068.4314 1068.4314
115.96135 52.229614 1066.2307 1066.2307
151.78011 -31.958817 1070.6436 1070.6436
98.281708 64.265045 1073.4033 1073.4033
134.74623 75.992447 1095.0651 1095.0651
130.11635 35.882019 1061.6514 1061.6514
135.32407 -10.319023 1057.0176 1057.0176
79.261467 39.170486 1060.3585 1060.3585
101.58874 64.590363 1073.6747 1073.6747
25.622633 -8.7837906 1083.7365 1083.7365
21.260326 23.252716 1092.9091 1092.9091
24.018843 -53.133377 1112.5339 1112.5339
144.43314 63.342239 1086.6482 1086.6482
85.800247 30.761032 1055.9143 1055.9143
121.50123 10.308136 1052.8844 1052.8844
8.3543253 -32.614563 1126.819 1126.819
175.134 -55.509605 1114.313 1114.313
45.866428 -44.983643 1078.9646 1078.9646
132.51508 60.149017 1077.0283 1077.0283
191.95293 0.77575684 1110.7054 1110.7054
93.168221 -2.7994614 1050.2729 1050.2729
148.2308 -81.4785 1117.8279 1117.8279
118.6331 23.331451 1054.5618 1054.5618
85.551872 38.838196 1058.9899 1058.9899
111.07082 47.496262 1062.6986 1062.6986
77.960663 49.398819 1065.8928 1065.8928
110.11207 -69.479324 1078.7935 1078.7935
82.382111 -32.475807 1057.0757 1057.0757
161.8625 16.622719 1073.21 1073.21
111.90675 16.176949 1052.0381 1052.0381
69.386292 90.297668 1119.8481 1119.8481
101.57117 -99.80616 1143.9783 1143.9783
86.286858 22.324905 1053.4933 1053.4933
56.460468 -10.001465 1060.5333 1060.5333
97.959229 -52.862709 1065.1392 1065.1392
131.09312 70.689819 1086.4691 1086.4691
38.44326 32.975525 1078.4222 1078.4222
19.243048 -15.195724 1093.014 1093.014
47.155178 -32.883652 1071.7307 1071.7307
60.705696 -33.933235 1064.5337 1064.5337
125.00375 -32.798767 1058.9009 1058.9009
186.6349 35.866531 1115.2439 1115.2439
33.268009 66.981552 1117.4375 1117.4375
28.309637 -56.977985 1109.8253 1109.8253
116.34984 -63.344761 1074.3685 1074.3685
20.182449 16.849396 1092.1619 1092.1619
111.60669 -82.061615 1094.0431 1094.0431
60.505474 -78.887337 1102.9153 1102.9153
40.99015 -19.959206 1071.7729 1071.7729
70.16909 45.864487 1066.2948 1066.2948
183.90286 53.911407 1142.6604 1142.6604
37.653076 44.589371 1085.7766 1085.7766
24.522905 -32.523102 1093.0311 1093.0311
176.70575 -11.638733 1086.9066 1086.9066
57.644058 -34.312515 1066.1631 1066.1631
65.458061 1.1410828 1056.1621 1056.1621
62.736164 -61.748657 1080.7288 1080.7288
135.17836 35.156876 1063.2448 1063.2448
113.58361 57.278976 1069.1631 1069.1631
73.656059 92.667953 1123.1924 1123.1924
80.28672 69.481354 1080.8354 1080.8354
96.059212 84.367386 1096.4592 1096.4592
99.17572 -44.503426 1060.4524 1060.4524
84.891663 60.178711 1071.5764 1071.5764
78.206032 -65.601624 1077.7404 1077.7404
153.79076 60.606781 1091.405 1091.405
109.12929 73.302704 1082.5955 1082.5955
30.347204 -44.344704 1093.5905 1093.5905
184.23698 -51.297054 1133.4851 1133.4851
104.86032 -9.0760803 1050.5314 1050.5314
123.28177 55.529404 1070.1599 1070.1599
164.50438 67.931015 1115.0062 1115.0062
2.4387088 12.643967 1132.0577 1132.0577
29.140177 6.6167221 1079.7498 1079.7498
14.357737 29.651062 1107.7363 1107.7363
41.799034 22.068008 1071.7335 1071.7335
108.72796 -84.85347 1097.8108 1097.8108
37.579994 -72.632896 1121.2214 1121.2214
182.20436 -12.781181 1094.5105 1094.5105
96.790695 -95.475906 1120.4357 1120.4357
83.400963 62.328674 1073.5826 1073.5826
123.13776 33.37326 1058.6169 1058.6169
84.639122 11.624374 1051.8729 1051.8729
56.901829 32.762375 1065.9216 1065.9216
99.074677 73.73233 1082.4524 1082.4524
56.466316 75.120209 1100.3838 1100.3838
75.801514 -74.8162 1088.2184 1088.2184
123.37222 60.171783 1073.6252 1073.6252
186.88795 -43.402493 1126.1943 1126.1943
154.562 35.189514 1073.9429 1073.9429
70.804474 46.773804 1066.5743 1066.5743
171.73486 -0.59227753 1080.3311 1080.3311
62.411423 73.826843 1093.9938 1093.9938
83.779701 12.355911 1052.101 1052.101
106.29587 -32.730865 1055.7183 1055.7183
137.1095 -7.3644333 1057.433 1057.433
169.72159 -31.461487 1085.5867 1085.5867
81.837761 -6.5018005 1051.8783 1051.8783
76.435638 -58.097721 1072.0938 1072.0938
20.372517 -21.536469 1093.47 1093.47
172.87268 10.837219 1082.3824 1082.3824
161.06015 -32.831291 1077.9323 1077.9323
127.7956 57.672714 1073.1803 1073.1803
91.295517 57.169113 1068.4161 1068.4161
54.05545 8.4700851 1061.5842 1061.5842
80.117348 -24.474739 1055.1018 1055.1018
52.111347 23.946289 1065.5414 1065.5414
144.3952 4.0750122 1060.4877 1060.4877
127.05573 -8.14608 1054.0748 1054.0748
195.90086 3.4343719 1121.8712 1121.8712
26.908434 18.724777 1084.3722 1084.3722
104.80877 78.263779 1087.9382 1087.9382
103.46016 35.426239 1056.5494 1056.5494
81.94603 80.566055 1093.5804 1093.5804
150.28073 42.55426 1074.7605 1074.7605
88.353828 65.822906 1075.6245 1075.6245
88.923615 -47.414364 1062.6548 1062.6548
64.501747 -60.292381 1078.5527 1078.5527
137.70049 66.988098 1086.037 1086.037
122.39433 -41.278603 1061.7131 1061.7131
126.70132 76.231094 1091.0436 1091.0436
53.730743 -14.413567 1062.5277 1062.5277
141.10959 85.780777 1119.151 1119.151
40.217598 9.1554489 1070.3618 1070.3618
37.460922 63.147217 1104.1602 1104.1602
122.11393 14.378036 1053.5415 1053.5415
97.233704 -72.950119 1081.658 1081.658
127.88261 -5.4354706 1054.1198 1054.1198
107.44221 -66.206993 1075.4263 1075.4263
92.679573 66.861588 1076.0004 1076.0004
154.4308 29.938965 1071.6359 1071.6359
121.19571 93.492432 1121.5411 1121.5411
42.678108 67.382736 1103.3763 1103.3763
91.862724 -0.61441803 1050.3335 1050.3335
152.06203 -70.385239 1101.6733 1101.6733
145.96672 45.098389 1073.4938 1073.4938
129.80875 -39.441715 1063.0759 1063.0759
101.6723 -63.288559 1072.5935 1072.5935
103.22191 -9.9734573 1050.5508 1050.5508
56.538857 -82.920013 1114.8517 1114.8517
90.922218 -89.583603 1106.4985 1106.4985
54.469925 58.807587 1083.1519 1083.1519
127.76417 -46.24564 1065.7949 1065.7949
151.09834 -23.414322 1067.2913 1067.2913
108.01268 39.059036 1058.293 1058.293
133.61089 84.26738 1107.9368 1107.9368
31.196959 -16.456245 1079.3223 1079.3223
102.59897 -24.430099 1053.0649 1053.0649
129.49756 -57.247498 1073.4976 1073.4976
74.595497 60.190079 1074.2916 1074.2916
26.703054 -38.141567 1093.6726 1093.6726
138.74977 45.378357 1069.755 1069.755
15.448835 53.134995 1144.73 1144.73
46.025421 -59.972675 1090.9236 1090.9236
167.08569 34.304001 1084.2524 1084.2524
49.722118 -22.68573 1066.5884 1066.5884
4.9572296 23.80954 1130.0006 1130.0006
60.897701 -14.425751 1059.0995 1059.0995
84.57354 -7.7157059 1051.4988 1051.4988
107.62808 -77.193939 1086.8898 1086.8898
152.50233 -80.036285 1121.057 1121.057
23.126089 -40.77615 1100.7283 1100.7283
44.860531 -40.537907 1077.0869 1077.0869
37.76215 39.538406 1082.4489 1082.4489
70.630524 -50.8484 1069.0564 1069.0564
45.397171 -39.617367 1076.1827 1076.1827
177.23553 -7.3383026 1086.9063 1086.9063
91.553268 -6.0281754 1050.5399 1050.5399
49.651398 32.608902 1069.9895 1069.9895
43.435177 -61.405579 1094.9565 1094.9565
142.22595 -43.712814 1070.5886 1070.5886
87.525436 59.911133 1070.9111 1070.9111
89.882896 -1.3824768 1050.5227 1050.5227
179.43744 57.921036 1131.7012 1131.7012
81.90004 95.913971 1128.2537 1128.2537
56.520779 -60.522156 1083.317 1083.317
24.929766 65.366379 1140.4242 1140.4242
152.62587 68.352432 1099.4187 1099.4187
189.382 15.940582 1108.0863 1108.0863
149.44585 -83.455582 1125.7045 1125.7045
33.068039 73.21785 1137.3801 1137.3801
159.10892 7.1281281 1069.6549 1069.6549
172.83066 17.856583 1083.8423 1083.8423
124.4112 -22.591904 1055.6936 1055.6936
129.53383 -60.521759 1076.0752 1076.0752
63.970238 -4.0275726 1056.8032 1056.8032
41.498722 -64.583435 1100.9431 1100.9431
54.011757 -83.705887 1120.3621 1120.3621
154.68631 7.4813004 1066.6127 1066.6127
167.93518 69.269943 1125.7825 1125.7825
54.494713 60.611481 1084.7656 1084.7656
3.4239206 -22.282318 1136.7125 1136.7125
89.522781 -67.859192 1077.2996 1077.2996
86.748848 8.4465408 1051.2424 1051.2424
84.167084 68.344116 1078.7371 1078.7371
151.42007 -66.337509 1095.6372 1095.6372
88.30677 -57.442944 1068.9841 1068.9841
89.381996 -64.450851 1074.2811 1074.2811
42.782501 -78.892311 1127.5911 1127.5911
106.25973 -31.993706 1055.4631 1055.4631
30.547762 39.593536 1089.9272 1089.9272
139.74919 -63.619514 1083.8746 1083.8746
52.871948 65.567917 1091.0103 1091.0103
122.67068 -4.728302 1052.7185 1052.7185
16.497187 -18.412125 1098.1515 1098.1515
177.91614 54.325134 1118.7294 1118.7294
138.65654 56.960541 1077.4661 1077.4661
18.649837 48.846878 1118.4384 1118.4384
133.17146 3.3887634 1055.7229 1055.7229
19.221888 -20.897087 1094.88 1094.88
113.30066 48.633865 1063.6412 1063.6412
91.798439 10.184395 1050.8586 1050.8586
85.152687 -9.1994934 1051.5372 1051.5372
61.78046 59.544281 1079.3336 1079.3336
160.5144 -68.515411 1109.4581 1109.4581
197.70239 2.8584442 1128.8796 1128.8796
97.61808 -8.3510284 1050.3778 1050.3778
105.8012 -96.409264 1124.0847 1124.0847
166.0361 0.86951447 1074.9102 1074.9102
34.100445 23.169067 1078.4427 1078.4427
19.938622 16.651009 1092.442 1092.442
50.991177 52.377518 1080.3241 1080.3241
98.101585 -5.3354263 1050.1605 1050.1605
53.082382 -35.901245 1069.3164 1069.3164
146.54016 36.930847 1069.5629 1069.5629
59.213192 -25.536278 1062.3396 1062.3396
110.39394 -84.481636 1097.5137 1097.5137
140.01166 89.220734 1129.0542 1129.0542
59.44352 -51.730488 1074.64 1074.64
140.90137 89.893661 1134.309 1134.309
28.056684 -39.151932 1092.6302 1092.6302
99.674454 2.9821777 1050.045 1050.045
78.405655 31.466461 1057.5687 1057.5687
123.57002 5.0452957 1052.9485 1052.9485
150.22589 20.5224 1065.9989 1065.9989
174.88249 -64.919846 1136.6573 1136.6573
40.762375 -22.469193 1072.6305 1072.6305
103.4181 30.375336 1054.7863 1054.7863
108.77892 -38.641815 1058.1864 1058.1864
182.72185 -0.69094849 1093.8162 1093.8162
54.693974 87.585052 1133.38 1133.38
174.99832 61.557526 1125.7942 1125.7942
21.776598 -35.057945 1098.5021 1098.5021
20.1991 18.783478 1092.7374 1092.7374
80.339653 -6.8896179 1052.1941 1052.1941
57.496788 -72.623199 1095.969 1095.969
141.22148 7.7446213 1059.2211 1059.2211
61.017513 60.170013 1080.2867 1080.2867
63.001709 63.770981 1082.4397 1082.4397
90.84449 77.444458 1087.4019 1087.4019
160.37276 -77.100731 1129.7366 1129.7366
122.96976 -7.2480164 1052.9441 1052.9441
68.611206 1.4239197 1055.0647 1055.0647
24.568003 -4.7950745 1084.5247 1084.5247
105.42908 -49.838074 1063.4744 1063.4744
58.668415 6.0928726 1059.1453 1059.1453
177.25697 -56.709366 1121.4447 1121.4447
27.734365 64.013 1123.923 1123.923
189.59988 39.502319 1129.7163 1129.7163
148.96779 71.814224 1100.5543 1100.5543
126.44787 -80.205086 1096.4495 1096.4495
144.2571 -3.685524 1060.4025 1060.4025
92.235939 -7.8522873 1050.6116 1050.6116
159.09552 43.758926 1082.2292 1082.2292
22.43602 14.871895 1088.6595 1088.6595
143.76814 -77.059982 1103.6738 1103.6738
134.8535 -30.524414 1061.38 1061.38
54.42651 -12.919525 1061.931 1061.931
82.156548 -86.541443 1103.1792 1103.1792
114.38793 -30.333832 1055.8042 1055.8042
175.0184 -10.183983 1084.666 1084.666
87.714325 -48.285439 1063.296 1063.296
41.886734 72.572418 1113.1748 1113.1748
135.26974 12.362122 1057.2465 1057.2465
120.45833 63.093857 1075.1627 1075.1627
115.68161 -34.223763 1057.3564 1057.3564
180.30331 -41.07563 1106.824 1106.824
115.97572 3.375473 1051.342 1051.342
83.811493 -32.059082 1056.6719 1056.6719
8.9784031 -36.120701 1129.7426 1129.7426
83.386215 44.114548 1061.8076 1061.8076
146.54948 -75.201973 1103.333 1103.333
116.06157 -9.9405289 1051.8002 1051.8002
82.445923 92.699951 1116.8552 1116.8552
167.75185 58.867126 1105.9053 1105.9053
194.96353 -8.5659409 1119.8578 1119.8578
189.49376 -30.030647 1116.9996 1116.9996
145.55351 65.3638 1089.5645 1089.5645
172.92868 23.154129 1085.6161 1085.6161
92.912239 37.23967 1057.4636 1057.4636
128.20918 -47.681648 1066.7491 1066.7491
57.422043 -81.928909 1111.5973 1111.5973
185.07709 -1.4555511 1097.4664 1097.4664
89.757141 87.108292 1101.9663 1101.9663
194.65259 8.8942795 1118.9874 1118.9874
129.61835 -84.285393 1105.0698 1105.0698
185.35759 1.0038528 1097.9128 1097.9128
69.238052 -45.688786 1066.536 1066.536
47.258453 -61.554661 1091.4393 1091.4393
103.01423 -65.463402 1074.4656 1074.4656
180.64529 -44.33313 1110.8732 1110.8732
131.7627 17.039169 1056.7219 1056.7219
49.496738 25.558701 1067.561 1067.561
98.226807 -76.517952 1085.6427 1085.6427
159.16258 -7.609787 1069.7386 1069.7386
168.46092 18.167671 1079.4094 1079.4094
15.469912 -0.11065674 1096.571 1096.571
178.77766 21.81041 1092.3945 1092.3945
39.320671 12.218391 1071.4587 1071.4587
62.35178 17.645813 1059.0537 1059.0537
122.50098 41.82193 1061.9965 1061.9965
136.32141 -87.666229 1118.4502 1118.4502
178.4588 -57.077972 1125.7859 1125.7859
26.473831 57.98645 1114.9076 1114.9076
31.899363 25.193771 1081.2427 1081.2427
159.88654 22.472717 1073.1327 1073.1327
35.531376 -12.477303 1074.5804 1074.5804
185.44696 -17.837227 1101.2081 1101.2081
189.62173 -31.282166 1118.5458 1118.5458
97.31356 43.733459 1060.1102 1060.1102
81.095192 36.456985 1058.8217 1058.8217
153.92279 -43.041599 1077.6139 1077.6139
102.84098 -75.673592 1084.6897 1084.6897
159.81393 -28.707489 1075.1791 1075.1791
35.929264 -55.4384 1096.882 1096.882
33.414764 -17.196754 1077.4005 1077.4005
1.2865043 6.8830109 1135.5684 1135.5684
138.44122 -91.333015 1136.563 1136.563
39.731483 30.88475 1076.4213 1076.4213
40.977295 -0.63778687 1069.2788 1069.2788
168.09071 70.679916 1130.8165 1130.8165
