# .PCD v0.7 - Point Cloud Data file format
VERSION 0.7
FIELDS x y z intensity
SIZE 4 4 4 4
TYPE F F F F
COUNT 1 1 1 1
WIDTH 1179
HEIGHT 1
VIEWPOINT 0 0 0 1 0 0 0
POINTS 1179
DATA ascii
100.84339 -52.331451 612.09668 612.09668
134.39255 -90.963493 606.53613 606.53613
51.110123 -19.728439 665.84949 665.84949
102.37371 -63.964493 606.74866 606.74866
140.18399 -187.75005 673.8241 673.8241
168.56265 -73.618332 632.15332 632.15332
62.905739 -53.091919 619.85236 619.85236
22.91857 -133.63524 645.89709 645.89709
158.75288 -167.04819 654.69397 654.69397
21.137363 -129.91223 646.27905 646.27905
136.356 -191.89987 684.74701 684.74701
137.13403 -8.2752228 685.59064 685.59064
72.075577 -85.782539 605.03638 605.03638
73.449402 -74.910294 606.91095 606.91095
142.22011 -186.73721 673.65387 673.65387
169.69879 -154.60449 653.51959 653.51959
79.683907 -20.580322 642.73071 642.73071
136.20004 -59.680481 615.953 615.953
116.37329 -179.36948 641.41327 641.41327
79.293983 -41.22374 621.79126 621.79126
89.802223 -157.20299 618.61316 618.61316
58.921158 -115.70803 610.19031 610.19031
138.58296 -86.964966 608.66852 608.66852
90.887352 -5.6555786 668.12384 668.12384
55.916893 -159.7793 633.04395 633.04395
59.261948 -21.384354 653.52429 653.52429
193.74115 -65.48877 695.35553 695.35553
39.7658 -149.33141 637.24451 637.24451
87.661949 -5.5843048 669.44757 669.44757
150.52013 -96.954666 613.7536 613.7536
150.23851 -146.31519 626.98633 626.98633
56.394745 -77.448402 612.87933 612.87933
136.04916 -94.846786 606.86621 606.86621
21.236267 -154.33434 670.94739 670.94739
103.2606 -96.248604 600.1236 600.1236
133.02751 -188.08382 666.08209 666.08209
158.10034 -155.6866 640.64215 640.64215
181.93968 -49.449539 672.9715 672.9715
109.36109 -66.065216 606.40088 606.40088
84.319344 -58.325333 610.46039 610.46039
55.602318 -122.77174 613.33807 613.33807
43.747349 -81.538055 619.40973 619.40973
22.945324 -102.46614 636.30939 636.30939
142.28209 -177.12648 652.42133 652.42133
152.0611 -155.53668 635.15155 635.15155
148.4021 -77.31292 615.48651 615.48651
87.936249 -115.43078 601.93695 601.93695
4.314569 -115.88473 675.66949 675.66949
91.257744 -100.16312 600.383 600.383
147.11926 -118.73519 613.80969 613.80969
102.76714 -11.655243 653.22876 653.22876
102.59752 -190.75027 658.07581 658.07581
104.444 -60.230286 608.35602 608.35602
179.73941 -126.26276 645.6687 645.6687
184.98859 -129.53818 656.36017 656.36017
68.333183 -97.247864 605.18628 605.18628
173.96454 -71.954376 638.82245 638.82245
66.628326 -60.960281 614.19653 614.19653
87.373276 -162.3902 622.87653 622.87653
123.19546 -81.160942 604.56909 604.56909
78.171631 -116.8186 603.87164 603.87164
58.386261 -107.25357 609.35962 609.35962
97.699547 -191.59192 659.92969 659.92969
133.47118 -170.46301 637.43286 637.43286
150.81889 -70.058212 619.24774 619.24774
72.471832 -152.53777 619.48926 619.48926
52.6464 -168.67966 644.85706 644.85706
77.592812 -140.73309 611.46338 611.46338
42.909241 -133.75171 625.15704 625.15704
49.550499 -111.60303 614.44171 614.44171
163.92679 -48.084396 643.27136 643.27136
189.36868 -95.286003 655.37921 655.37921
42.864754 -156.67021 640.63629 640.63629
98.165962 -155.51593 616.84583 616.84583
161.175 -122.43661 624.14343 624.14343
26.309994 -42.988342 663.67572 663.67572
2.9517748 -109.27438 677.7373 677.7373
121.87282 -118.87351 604.26404 604.26404
118.90365 -132.45203 607.32037 607.32037
82.908646 -34.903885 626.03796 626.03796
166.86388 -55.068253 640.75171 640.75171
132.98228 -174.07704 641.47852 641.47852
127.87321 -172.0011 636.44745 636.44745
129.38783 -188.81021 664.65735 664.65735
97.278954 -12.454407 651.74689 651.74689
96.550941 -33.986832 624.96423 624.96423
191.49248 -79.175606 665.42444 665.42444
164.8058 -115.39832 625.41382 625.41382
21.025114 -72.727371 645.05304 645.05304
57.636845 -44.667297 628.2807 628.2807
113.74422 -106.48457 601.1615 601.1615
168.974 -74.301865 632.30811 632.30811
137.47913 -74.799522 610.77979 610.77979
20.789244 -80.22348 642.25446 642.25446
158.09329 -81.927361 620.6366 620.6366
120.96312 -174.1953 636.31635 636.31635
146.43329 -74.611832 615.15076 615.15076
21.501125 -89.531197 638.93994 638.93994
52.902061 -24.105972 655.03467 655.03467
144.46423 -142.82509 621.33014 621.33014
9.1561337 -128.7874 669.69031 669.69031
68.478691 -194.82396 696.14978 696.14978
139.96159 -105.8849 608.52081 608.52081
85.927185 -182.05762 644.60596 644.60596
40.406216 -57.941895 631.59167 631.59167
7.8481293 -75.155235 670.15424 670.15424
104.78891 -175.54182 634.65094 634.65094
94.083359 -160.91545 620.91589 620.91589
58.82312 -161.16756 632.45007 632.45007
148.47565 -107.82867 612.88617 612.88617
126.96642 -191.53619 670.1012 670.1012
97.122063 -167.0799 625.89197 625.89197
84.651199 -32.866608 627.49121 627.49121
86.791801 -118.4741 602.61292 602.61292
88.716965 -163.37582 623.47418 623.47418
99.549225 -89.956032 600.50671 600.50671
50.977356 -86.001335 613.97198 613.97198
84.27581 -163.72942 624.5592 624.5592
62.21283 -58.516159 617.22791 617.22791
127.53391 -175.83655 640.91785 640.91785
32.582993 -154.327 649.96478 649.96478
55.935593 -127.04202 614.40179 614.40179
109.35828 -3.5018921 675.49414 675.49414
122.12309 -160.08363 623.18512 623.18512
77.354828 -79.623566 604.75299 604.75299
77.393684 -29.784256 632.48181 632.48181
185.45587 -74.547127 654.72919 654.72919
89.709618 -153.78519 616.32648 616.32648
33.616737 -69.826431 631.56891 631.56891
105.97758 -35.123688 624.13611 624.13611
138.26215 -63.682495 615.04681 615.04681
80.074448 -165.25334 626.89069 626.89069
40.367085 -26.013687 668.85614 668.85614
136.34785 -95.949936 606.9278 606.9278
40.59549 -112.48598 620.53174 620.53174
182.00481 -108.42753 643.39447 643.39447
53.280544 -78.616928 614.20923 614.20923
118.53994 -19.021988 644.33282 644.33282
123.09077 -36.204803 626.53577 626.53577
168.65953 -47.752151 649.44281 649.44281
127.33904 -61.382904 611.90179 611.90179
139.54503 -117.4753 609.82904 609.82904
111.88315 -125.52492 604.04547 604.04547
166.60712 -28.741226 677.96185 677.96185
45.716942 -57.838791 627.36542 627.36542
139.03958 -64.45015 615.07581 615.07581
60.459541 -93.183502 608.40259 608.40259
54.560841 -78.152153 613.64056 613.64056
92.851662 -104.95417 600.37891 600.37891
179.54384 -75.93306 644.38025 644.38025
39.391273 -161.30521 649.32208 649.32208
87.349854 -54.368454 611.922 611.922
105.31229 -142.90103 609.82642 609.82642
92.180138 -14.215149 649.20819 649.20819
135.54037 -104.46062 606.63519 606.63519
183.96722 -119.53877 649.32709 649.32709
173.17821 -148.53934 652.15771 652.15771
190.04218 -119.95169 661.34332 661.34332
57.424145 -105.52332 609.68506 609.68506
75.720985 -43.253983 621.3208 621.3208
130.6871 -101.27345 604.83344 604.83344
59.27483 -59.912659 617.93622 617.93622
64.397278 -143.51306 617.30139 617.30139
50.100307 -180.97531 669.12897 669.12897
184.53598 -109.27031 647.39081 647.39081
190.6734 -89.569054 659.14014 659.14014
114.50391 -160.43634 621.66046 621.66046
116.43227 -135.63962 608.02283 608.02283
99.452026 -136.37454 606.85175 606.85175
63.365543 -154.1581 624.33746 624.33746
2.5802753 -88.910004 680.34271 680.34271
171.90875 -93.999077 630.76764 630.76764
156.14066 -124.29142 620.89148 620.89148
47.419704 -101.28043 614.94897 614.94897
27.452192 -127.45689 636.88953 636.88953
30.921394 -59.780823 639.91205 639.91205
144.74348 -26.487701 649.06903 649.06903
74.01107 -49.821014 617.49762 617.49762
18.862356 -52.638824 665.74213 665.74213
54.190655 -131.77548 616.98297 616.98297
95.461037 -191.80388 660.61163 660.61163
35.126263 -107.58656 624.27783 624.27783
66.489563 -83.668877 607.20807 607.20807
44.010593 -169.09854 654.27716 654.27716
90.136162 -26.32753 633.104 633.104
63.189922 -75.87484 610.20581 610.20581
178.13101 -67.178162 646.9126 646.9126
160.72479 -89.133873 621.29529 621.29529
140.91734 -125.45364 612.37646 612.37646
121.98071 -76.602066 605.29315 605.29315
186.29514 -93.594154 649.87903 649.87903
116.29064 -126.24644 604.89093 604.89093
81.895874 -195.88785 678.14227 678.14227
105.50548 -40.090561 620.12164 620.12164
14.77183 -87.064102 649.31647 649.31647
64.653069 -169.76677 637.68475 637.68475
126.61036 -53.642563 615.48444 615.48444
188.21762 -56.957062 680.89618 680.89618
47.968403 -137.95053 623.49854 623.49854
142.78822 -177.59544 653.65222 653.65222
70.024651 -52.11525 617.48621 617.48621
138.37152 -57.355927 618.09082 618.09082
95.423149 -79.184761 602.29749 602.29749
156.21849 -101.367 617.31012 617.31012
188.63556 -115.65035 656.42474 656.42474
41.41222 -82.145035 620.95148 620.95148
107.89877 -185.65195 648.99652 648.99652
49.211086 -172.688 653.77295 653.77295
128.4991 -65.636581 610.51843 610.51843
86.434853 -41.87674 619.76489 619.76489
138.32034 -96.361839 607.70526 607.70526
131.94954 -162.16179 628.4798 628.4798
124.28616 -140.73611 611.96167 611.96167
10.357265 -120.87872 660.90704 660.90704
35.223644 -29.136795 672.02802 672.02802
131.68575 -168.83224 634.74561 634.74561
97.636612 -44.997864 616.51837 616.51837
172.3394 -94.198921 631.20056 631.20056
63.363922 -93.062973 607.21167 607.21167
51.338493 -117.54704 614.4187 614.4187
184.78424 -56.935623 669.06311 669.06311
17.831207 -97.196342 643.07526 643.07526
88.102509 -68.51384 605.83484 605.83484
71.957855 -136.88487 611.38202 611.38202
76.136604 -166.76622 629.48181 629.48181
151.92426 -27.120712 655.36279 655.36279
159.87921 -128.62775 625.20074 625.20074
61.546497 -12.68428 670.04517 670.04517
81.16452 -29.516556 631.60913 631.60913
113.00816 -172.11061 631.94965 631.94965
99.787346 -13.758545 649.38019 649.38019
126.54995 -105.16876 603.72754 603.72754
75.80442 -27.442413 635.57971 635.57971
171.282 -34.996796 673.66638 673.66638
86.47403 -97.62635 600.94739 600.94739
39.321743 -177.32881 681.60425 681.60425
11.670059 -111.15504 654.46552 654.46552
54.302437 -102.71128 611.09338 611.09338
54.202534 -165.63902 640.04907 640.04907
147.3764 -128.81107 616.78101 616.78101
145.73761 -37.157043 637.08075 637.08075
65.794243 -87.711426 606.83911 606.83911
126.86174 -161.22714 625.63818 625.63818
96.948128 -127.55676 603.92029 603.92029
39.499008 -131.87784 627.03815 627.03815
94.767792 -22.829086 636.61804 636.61804
183.08653 -107.60786 644.87518 644.87518
25.373034 -127.95365 639.58966 639.58966
158.11139 -21.165146 679.79773 679.79773
149.04425 -40.861877 635.9895 635.9895
179.43652 -69.854111 647.26422 647.26422
32.517639 -119.37653 628.79126 628.79126
30.558559 -120.04452 630.89063 630.89063
161.66466 -152.00893 640.90228 640.90228
153.82823 -56.221039 627.98663 627.98663
76.262459 -3.7894135 686.5816 686.5816
44.387089 -21.789886 671.88623 671.88623
173.41751 -84.405281 633.91919 633.91919
55.108517 -133.29056 617.07538 617.07538
58.403164 -36.103287 635.29364 635.29364
129.93784 -191.48766 672.91248 672.91248
44.672878 -170.71909 655.98047 655.98047
72.635582 -187.12427 659.25012 659.25012
132.0128 -113.45252 606.22253 606.22253
120.50198 -176.49387 638.9397 638.9397
141.69292 -46.492844 626.52429 626.52429
103.5015 -89.611267 600.60278 600.60278
50.920952 -102.99741 612.92383 612.92383
113.33038 -133.98293 606.90082 606.90082
56.305416 -84.296692 611.43256 611.43256
11.426944 -139.96306 676.38293 676.38293
54.327774 -37.570007 636.62378 636.62378
53.269566 -85.094955 612.85583 612.85583
66.92321 -12.060623 665.7569 665.7569
105.66277 -195.98508 672.52643 672.52643
156.86371 -60.989456 627.57971 627.57971
38.600155 -103.09932 621.13013 621.13013
135.63408 -47.296097 622.84747 622.84747
58.525391 -95.533356 609.11597 609.11597
136.93738 -31.701691 636.98438 636.98438
183.9966 -107.11937 646.20514 646.20514
61.043312 -109.82521 608.42578 608.42578
161.27017 -23.383606 680.612 680.612
90.946564 -148.33218 612.92511 612.92511
30.142889 -132.10928 636.05487 636.05487
133.31772 -51.036575 619.42389 619.42389
144.62915 -156.35248 630.48285 630.48285
81.976334 -80.577576 603.57428 603.57428
15.695247 -76.771797 651.4906 651.4906
160.79716 -44.641083 643.08698 643.08698
152.57346 -75.874016 618.42816 618.42816
74.486328 -196.44525 693.11768 693.11768
93.425064 -120.0554 602.25262 602.25262
93.950996 -41.925812 618.81628 618.81628
111.27773 -152.47977 615.62769 615.62769
113.86543 -178.6115 639.76727 639.76727
19.962915 -94.736053 640.28101 640.28101
163.9507 -25.245605 682.05322 682.05322
112.6205 -56.890381 610.65637 610.65637
13.26638 -111.7737 651.64032 651.64032
108.19548 -2.4250031 679.70337 679.70337
145.99095 -100.5067 611.2049 611.2049
83.728989 -124.72916 604.48181 604.48181
141.70244 -157.14482 629.32202 629.32202
150.44704 -39.633179 638.26715 638.26715
144.68713 -80.960594 612.58972 612.58972
49.070393 -107.55579 614.27319 614.27319
131.36996 -104.03901 605.13373 605.13373
155.52573 -181.0771 681.46899 681.46899
105.60931 -24.797867 634.32526 634.32526
81.919952 -113.95827 602.64355 602.64355
53.607643 -22.937836 656.30591 656.30591
77.526787 -18.283112 646.92169 646.92169
160.27786 -142.29483 632.34113 632.34113
119.87267 -127.64851 605.97534 605.97534
32.690105 -64.435516 635.15753 635.15753
23.218655 -104.22021 636.07178 636.07178
100.86892 -151.80605 614.47003 614.47003
67.763321 -159.30206 626.21613 626.21613
84.461594 -190.09955 659.4953 659.4953
83.92614 -178.91078 640.7149 640.7149
97.903099 -44.191635 617.04803 617.04803
95.998634 -94.579147 600.22723 600.22723
142.54611 -32.361404 639.8764 639.8764
61.063511 -135.85408 615.15643 615.15643
90.107117 -70.115204 605.08411 605.08411
87.634506 -108.25366 601.11133 601.11133
31.644461 -130.96338 633.9032 633.9032
6.3361964 -75.501015 674.96222 674.96222
142.39401 -60.617523 618.44165 618.44165
91.804184 -5.441864 668.5105 668.5105
177.3893 -48.196655 663.56775 663.56775
134.87576 -158.52925 626.80157 626.80157
135.07539 -31.354141 636.30176 636.30176
63.920765 -48.230392 622.42297 622.42297
22.102203 -79.821381 640.63037 640.63037
36.113213 -111.83321 623.98389 623.98389
17.789347 -55.378754 664.63965 664.63965
65.857559 -117.02169 607.56323 607.56323
97.519196 -194.98282 668.82129 668.82129
117.32116 -36.012405 625.1297 625.1297
103.63916 -77.774086 602.56915 602.56915
178.01364 -117.81843 640.03021 640.03021
83.209991 -52.204208 613.78131 613.78131
37.485626 -124.86176 626.01453 626.01453
68.795166 -29.220718 636.62372 636.62372
128.98427 -118.63799 606.12488 606.12488
151.9053 -167.81592 647.97272 647.97272
176.53905 -126.43453 641.323 641.323
131.33286 -45.259338 622.40033 622.40033
107.57775 -109.20338 600.71313 600.71313
47.899296 -67.735443 620.97778 620.97778
166.07893 -117.96973 627.12573 627.12573
71.20256 -55.028778 615.45239 615.45239
100.33001 -187.79938 652.13391 652.13391
38.133381 -50.75 638.7876 638.7876
171.74113 -93.4795 630.64087 630.64087
73.157722 -110.22197 604.21375 604.21375
129.99489 -135.15775 611.31946 611.31946
154.35596 -110.10534 616.67346 616.67346
30.348661 -106.58504 628.5484 628.5484
46.304089 -184.32936 697.69598 697.69598
95.235962 -35.858566 623.42859 623.42859
0.69568163 -100.7627 688.24969 688.24969
56.844837 -47.704651 626.49609 626.49609
66.77858 -65.597336 612.17749 612.17749
77.563484 -103.15012 602.6004 602.6004
133.38113 -99.259506 605.73889 605.73889
67.408089 -20.897034 648.22656 648.22656
140.70799 -127.99529 613.05676 613.05676
57.185669 -16.865189 664.56647 664.56647
159.78238 -74.412743 624.03052 624.03052
57.353813 -131.49391 615.20947 615.20947
123.1604 -156.515 620.81885 620.81885
160.1609 -175.12419 672.85187 672.85187
84.158005 -120.10426 603.33124 603.33124
14.022186 -110.08318 649.9386 649.9386
141.54431 -115.78294 610.41779 610.41779
41.029274 -112.69633 620.24249 620.24249
56.64431 -183.55345 666.24939 666.24939
54.573147 -110.69003 611.55725 611.55725
65.052223 -60.264236 615.1488 615.1488
166.05025 -34.943207 662.51697 662.51697
71.808037 -92.590126 604.34277 604.34277
133.54903 -17.71521 654.13416 654.13416
163.50345 -29.329086 668.80811 668.80811
75.334946 -195.71141 684.80261 684.80261
77.400177 -32.81842 629.46008 629.46008
74.164932 -106.80363 603.63477 603.63477
94.485016 -67.958557 605.43292 605.43292
92.220566 -51.65918 612.80682 612.80682
31.360023 -114.00411 628.63867 628.63867
170.9315 -138.06979 640.67535 640.67535
95.071609 -185.38603 648.18365 648.18365
153.23404 -37.333878 643.08698 643.08698
163.57544 -154.6026 645.44067 645.44067
64.889458 -142.00275 616.31598 616.31598
116.73472 -47.966248 616.2597 616.2597
92.194878 -161.99226 621.92285 621.92285
123.11232 -96.200203 602.7818 602.7818
69.755615 -60.265793 613.36011 613.36011
158.36958 -117.41911 620.69324 620.69324
191.62071 -85.835419 662.51654 662.51654
71.212204 -167.38135 631.94843 631.94843
99.302567 -6.4584656 664.65179 664.65179
120.35164 -183.58832 649.02155 649.02155
109.99354 -140.18399 608.97595 608.97595
93.084351 -36.851471 622.77026 622.77026
181.2334 -53.095886 665.34253 665.34253
89.701675 -34.962662 624.73987 624.73987
52.723537 -112.25851 612.73798 612.73798
140.84464 -163.76834 634.69061 634.69061
27.664576 -72.638702 636.60486 636.60486
24.533447 -137.97391 646.49506 646.49506
160.40848 -166.65765 656.32422 656.32422
51.478737 -41.584091 634.9364 634.9364
177.24956 -78.413651 640.27954 640.27954
65.209137 -159.77156 627.77148 627.77148
31.845533 -115.98418 628.58942 628.58942
91.735634 -198.2567 683.34705 683.34705
30.075058 -76.421913 632.51239 632.51239
113.59923 -54.794571 611.84375 611.84375
170.67979 -131.78281 636.80017 636.80017
135.77699 -191.34796 680.62073 680.62073
78.488335 -90.957848 602.76068 602.76068
124.62579 -42.416763 622.04016 622.04016
86.607994 -37.153549 623.37769 623.37769
70.855873 -164.56265 629.41467 629.41467
27.72032 -100.7308 630.89783 630.89783
15.737271 -146.65958 673.11737 673.11737
53.026791 -159.2547 634.55994 634.55994
23.133999 -148.23669 657.98999 657.98999
45.842915 -127.64246 620.60913 620.60913
152.61256 -162.2178 642.02704 642.02704
87.572166 -34.027023 625.88446 625.88446
119.92898 -116.03725 603.32715 603.32715
1.1001199 -92.156197 687.45856 687.45856
198.41098 -85.348679 689.96912 689.96912
112.26813 -20.48555 640.61194 640.61194
171.50865 -36.979752 669.75171 669.75171
58.645981 -188.63161 679.16052 679.16052
61.485161 -32.422134 637.15228 637.15228
91.433594 -128.8667 604.64105 604.64105
157.77528 -102.92767 618.43134 618.43134
115.96135 -47.770386 616.23065 616.23065
151.78011 -131.95882 620.64349 620.64349
98.281708 -35.734955 623.40332 623.40332
134.74623 -24.007553 645.06506 645.06506
130.11635 -64.117981 611.65137 611.65137
135.32407 -110.31902 607.01758 607.01758
79.261467 -60.829514 610.35858 610.35858
101.58874 -35.409637 623.67462 623.67462
25.622633 -108.78379 633.73651 633.73651
21.260326 -76.747284 642.90906 642.90906
24.018843 -153.13338 662.53387 662.53387
144.43314 -36.657761 636.64813 636.64813
85.800247 -69.238968 605.91425 605.91425
121.50123 -89.691864 602.8844 602.8844
8.3543253 -132.61456 676.81897 676.81897
175.134 -155.50961 664.31299 664.31299
45.866428 -144.98364 628.9646 628.9646
132.51508 -39.850983 627.02832 627.02832
191.95293 -99.224243 660.70551 660.70551
93.168221 -102.79946 600.27295 600.27295
148.2308 -181.4785 667.82794 667.82794
118.6331 -76.668549 604.56177 604.56177
85.551872 -61.161804 608.98987 608.98987
111.07082 -52.503738 612.69855 612.69855
77.960663 -50.601181 615.89276 615.89276
110.11207 -169.47932 628.79346 628.79346
82.382111 -132.4758 607.07568 607.07568
161.8625 -83.377281 623.2099 623.2099
111.90675 -83.823051 602.03809 602.03809
69.386292 -9.7023315 669.84821 669.84821
101.57117 -199.80615 693.97809 693.97809
86.286858 -77.675095 603.49329 603.49329
56.460468 -110.00146 610.53333 610.53333
97.959229 -152.8627 615.1391 615.1391
131.09312 -29.310181 636.46918 636.46918
38.44326 -67.024475 628.42218 628.42218
19.243048 -115.19572 643.01398 643.01398
47.155178 -132.88365 621.73065 621.73065
60.705696 -133.93323 614.53369 614.53369
125.00375 -132.79877 608.90088 608.90088
186.6349 -64.133469 665.2439 665.2439
33.268009 -33.018448 667.43756 667.43756
28.309637 -156.97798 659.82538 659.82538
116.34984 -163.34476 624.36847 624.36847
20.182449 -83.150604 642.1618 642.1618
111.60669 -182.06161 644.04309 644.04309
60.505474 -178.88733 652.91528 652.91528
40.99015 -119.95921 621.77295 621.77295
70.16909 -54.135513 616.2948 616.2948
183.90286 -46.088593 692.66046 692.66046
37.653076 -55.410629 635.77655 635.77655
24.522905 -132.5231 643.03113 643.03113
176.70575 -111.63873 636.90668 636.90668
57.644058 -134.31252 616.16309 616.16309
65.458061 -98.858917 606.16211 606.16211
62.736164 -161.74866 630.7287 630.7287
135.17836 -64.843124 613.24475 613.24475
113.58361 -42.721024 619.16309 619.16309
73.656059 -7.3320465 673.19238 673.19238
80.28672 -30.518646 630.83551 630.83551
96.059212 -15.632614 646.45923 646.45923
99.17572 -144.50342 610.45245 610.45245
84.891663 -39.821289 621.57642 621.57642
78.206032 -165.60162 627.74042 627.74042
153.79076 -39.393219 641.40503 641.40503
109.12929 -26.697296 632.59546 632.59546
30.347204 -144.3447 643.59045 643.59045
184.23698 -151.29706 683.48511 683.48511
104.86032 -109.07608 600.53137 600.53137
123.28177 -44.470596 620.15991 620.15991
164.50438 -32.068985 665.00623 665.00623
2.4387088 -87.356033 682.05774 682.05774
29.140177 -93.383278 629.74969 629.74969
14.357737 -70.348938 657.73633 657.73633
41.799034 -77.931992 621.73346 621.73346
108.72796 -184.85347 647.81079 647.81079
37.579994 -172.6329 671.22144 671.22144
182.20436 -112.78118 644.5105 644.5105
96.790695 -195.47591 670.43561 670.43561
83.400963 -37.671326 623.58264 623.58264
123.13776 -66.62674 608.61694 608.61694
84.639122 -88.375626 601.87292 601.87292
56.901829 -67.237625 615.92163 615.92163
99.074677 -26.26767 632.45233 632.45233
56.466316 -24.879791 650.38373 650.38373
75.801514 -174.81619 638.21838 638.21838
123.37222 -39.828217 623.62531 623.62531
186.88795 -143.4025 676.1944 676.1944
154.562 -64.810486 623.94287 623.94287
70.804474 -53.226196 616.5744 616.5744
171.73486 -100.59228 630.33105 630.33105
62.411423 -26.173157 643.99377 643.99377
83.779701 -87.644089 602.10089 602.10089
106.29587 -132.73087 605.7182 605.7182
137.1095 -107.36443 607.43298 607.43298
169.72159 -131.46149 635.58667 635.58667
81.837761 -106.5018 601.87836 601.87836
76.435638 -158.09772 622.09381 622.09381
20.372517 -121.53647 643.46997 643.46997
172.87268 -89.162781 632.38251 632.38251
161.06015 -132.8313 627.93225 627.93225
127.7956 -42.327286 623.1803 623.1803
91.295517 -42.830887 618.41614 618.41614
54.05545 -91.529915 611.58417 611.58417
80.117348 -124.47474 605.10181 605.10181
52.111347 -76.053711 615.54144 615.54144
144.3952 -95.924988 610.48767 610.48767
127.05573 -108.14608 604.07489 604.07489
195.90086 -96.565628 671.87122 671.87122
26.908434 -81.275223 634.37219 634.37219
104.80877 -21.736221 637.93829 637.93829
103.46016 -64.573761 606.54944 606.54944
81.94603 -19.433945 643.58044 643.58044
150.28073 -57.44574 624.7605 624.7605
88.353828 -34.177094 625.62451 625.62451
88.923615 -147.41437 612.65479 612.65479
64.501747 -160.29239 628.5528 628.5528
137.70049 -33.011902 636.03699 636.03699
122.39433 -141.27859 611.71313 611.71313
126.70132 -23.768906 641.04358 641.04358
53.730743 -114.41357 612.52771 612.52771
141.10959 -14.219223 669.151 669.151
40.217598 -90.844551 620.36182 620.36182
37.460922 -36.852783 654.16016 654.16016
122.11393 -85.621964 603.5415 603.5415
97.233704 -172.95012 631.65802 631.65802
127.88261 -105.43547 604.11975 604.11975
107.44221 -166.207 625.42627 625.42627
92.679573 -33.138412 626.00043 626.00043
154.4308 -70.061035 621.6358 621.6358
121.19571 -6.5075684 671.54114 671.54114
42.678108 -32.617264 653.37634 653.37634
91.862724 -100.61442 600.3335 600.3335
152.06203 -170.38524 651.67334 651.67334
145.96672 -54.901611 623.49384 623.49384
129.80875 -139.44171 613.07593 613.07593
101.6723 -163.28856 622.59351 622.59351
103.22191 -109.97346 600.55078 600.55078
56.538857 -182.92001 664.85175 664.85175
90.922218 -189.5836 656.4986 656.4986
54.469925 -41.192413 633.15179 633.15179
127.76417 -146.24564 615.79492 615.79492
151.09834 -123.41432 617.29132 617.29132
108.01268 -60.940964 608.29291 608.29291
133.61089 -15.73262 657.93677 657.93677
31.196959 -116.45625 629.32233 629.32233
102.59897 -124.4301 603.06488 603.06488
129.49756 -157.2475 623.49762 623.49762
74.595497 -39.809921 624.29156 624.29156
26.703054 -138.14157 643.67255 643.67255
138.74977 -54.621643 619.755 619.755
15.448835 -46.865005 694.72992 694.72992
46.025421 -159.97267 640.92358 640.92358
167.08569 -65.695999 634.25244 634.25244
49.722118 -122.68573 616.58844 616.58844
4.9572296 -76.19046 680.00055 680.00055
60.897701 -114.42575 609.09949 609.09949
84.57354 -107.71571 601.49878 601.49878
107.62808 -177.19394 636.88971 636.88971
152.50233 -180.03629 671.05701 671.05701
23.126089 -140.77615 650.72821 650.72821
44.860531 -140.5379 627.08691 627.08691
37.76215 -60.461594 632.44879 632.44879
70.630524 -150.8484 619.05634 619.05634
45.397171 -139.61737 626.18268 626.18268
177.23553 -107.3383 636.90625 636.90625
91.553268 -106.02818 600.53992 600.53992
49.651398 -67.391098 619.9895 619.9895
43.435177 -161.40558 644.9566 644.9566
142.22595 -143.71281 620.58868 620.58868
87.525436 -40.088867 620.91119 620.91119
89.882896 -101.38248 600.52271 600.52271
179.43744 -42.078964 681.70117 681.70117
81.90004 -4.0860291 678.25372 678.25372
56.520779 -160.52216 633.31696 633.31696
24.929766 -34.633621 690.42426 690.42426
152.62587 -31.647568 649.41876 649.41876
189.382 -84.059418 658.08636 658.08636
149.44585 -183.45558 675.70447 675.70447
33.068039 -26.78215 687.38019 687.38019
159.10892 -92.871872 619.65497 619.65497
172.83066 -82.143417 633.84235 633.84235
124.4112 -122.5919 605.6936 605.6936
129.53383 -160.52176 626.07526 626.07526
63.970238 -104.02757 606.80322 606.80322
41.498722 -164.58344 650.94312 650.94312
54.011757 -183.70589 670.36206 670.36206
154.68631 -92.5187 616.61273 616.61273
167.93518 -30.730057 675.78253 675.78253
54.494713 -39.388519 634.76569 634.76569
3.4239206 -122.28232 686.71246 686.71246
89.522781 -167.85919 627.29956 627.29956
86.748848 -91.553459 601.24243 601.24243
84.167084 -31.655884 628.73712 628.73712
151.42007 -166.33751 645.63721 645.63721
88.30677 -157.44295 618.98413 618.98413
89.381996 -164.45085 624.28113 624.28113
42.782501 -178.89232 677.59106 677.59106
106.25973 -131.99371 605.46313 605.46313
30.547762 -60.406464 639.92725 639.92725
139.74919 -163.61951 633.87463 633.87463
52.871948 -34.432083 641.01019 641.01019
122.67068 -104.7283 602.71851 602.71851
16.497187 -118.41212 648.15143 648.15143
177.91614 -45.674866 668.72931 668.72931
138.65654 -43.039459 627.46606 627.46606
18.649837 -51.153122 668.43842 668.43842
133.17146 -96.611237 605.7229 605.7229
19.221888 -120.89709 644.88007 644.88007
113.30066 -51.366135 613.64124 613.64124
91.798439 -89.815605 600.85864 600.85864
85.152687 -109.19949 601.53717 601.53717
61.78046 -40.455719 629.33356 629.33356
160.5144 -168.51541 659.45813 659.45813
197.70239 -97.141556 678.87958 678.87958
97.61808 -108.35103 600.37781 600.37781
105.8012 -196.40927 674.08478 674.08478
166.0361 -99.130486 624.91022 624.91022
34.100445 -76.830933 628.44275 628.44275
19.938622 -83.348991 642.44202 642.44202
50.991177 -47.622482 630.3241 630.3241
98.101585 -105.33543 600.16046 600.16046
53.082382 -135.90125 619.31641 619.31641
146.54016 -63.069153 619.56293 619.56293
59.213192 -125.53628 612.33966 612.33966
110.39394 -184.48164 647.51367 647.51367
140.01166 -10.779266 679.0542 679.0542
59.44352 -151.73048 624.64001 624.64001
140.90137 -10.106339 684.30902 684.30902
28.056684 -139.15193 642.63025 642.63025
99.674454 -97.017822 600.04498 600.04498
78.405655 -68.533539 607.56873 607.56873
123.57002 -94.954704 602.94849 602.94849
150.22589 -79.4776 615.99884 615.99884
174.88249 -164.91985 686.65741 686.65741
40.762375 -122.46919 622.63049 622.63049
103.4181 -69.624664 604.78625 604.78625
108.77892 -138.64182 608.1864 608.1864
182.72185 -100.69095 643.81622 643.81622
54.693974 -12.414948 683.38007 683.38007
174.99832 -38.442474 675.79413 675.79413
21.776598 -135.05795 648.50208 648.50208
20.1991 -81.216522 642.73749 642.73749
80.339653 -106.88962 602.19403 602.19403
57.496788 -172.6232 645.96899 645.96899
141.22148 -92.255379 609.22107 609.22107
61.017513 -39.829987 630.28674 630.28674
63.001709 -36.229019 632.43976 632.43976
90.84449 -22.555542 637.40179 637.40179
160.37276 -177.10074 679.73657 679.73657
122.96976 -107.24802 602.94403 602.94403
68.611206 -98.57608 605.0647 605.0647
24.568003 -104.79507 634.52466 634.52466
105.42908 -149.83807 613.47437 613.47437
58.668415 -93.907127 609.14526 609.14526
177.25697 -156.70937 671.44464 671.44464
27.734365 -35.987 673.92291 673.92291
189.59988 -60.497681 679.71631 679.71631
148.96779 -28.185776 650.55432 650.55432
126.44787 -180.20508 646.44952 646.44952
144.2571 -103.68552 610.4024 610.4024
92.235939 -107.85229 600.61157 600.61157
159.09552 -56.241074 632.22925 632.22925
22.43602 -85.128105 638.65948 638.65948
143.76814 -177.05998 653.67389 653.67389
134.8535 -130.52441 611.38007 611.38007
54.42651 -112.91953 611.93103 611.93103
82.156548 -186.54144 653.1792 653.1792
114.38793 -130.33383 605.8042 605.8042
175.0184 -110.18398 634.66602 634.66602
87.714325 -148.28543 613.29602 613.29602
41.886734 -27.427582 663.1748 663.1748
135.26974 -87.637878 607.24646 607.24646
120.45833 -36.906143 625.16272 625.16272
115.68161 -134.22375 607.35645 607.35645
180.30331 -141.07562 656.82397 656.82397
115.97572 -96.624527 601.3421 601.3421
83.811493 -132.05908 606.67181 606.67181
8.9784031 -136.1207 679.74255 679.74255
83.386215 -55.885452 611.80768 611.80768
146.54948 -175.20197 653.33301 653.33301
116.06157 -109.94053 601.80017 601.80017
82.445923 -7.3000488 666.85529 666.85529
167.75185 -41.132874 655.90521 655.90521
194.96353 -108.56594 669.85779 669.85779
189.49376 -130.03064 666.99957 666.99957
145.55351 -34.6362 639.56451 639.56451
172.92868 -76.845871 635.61603 635.61603
92.912239 -62.76033 607.46368 607.46368
128.20918 -147.68164 616.74915 616.74915
57.422043 -181.92891 661.59723 661.59723
185.07709 -101.45555 647.46649 647.46649
89.757141 -12.891708 651.96637 651.96637
194.65259 -91.105721 668.98743 668.98743
129.61835 -184.2854 655.06976 655.06976
185.35759 -98.996147 647.91284 647.91284
69.238052 -145.68878 616.53601 616.53601
47.258453 -161.55466 641.43933 641.43933
103.01423 -165.46341 624.46552 624.46552
180.64529 -144.33313 660.87317 660.87317
131.7627 -82.960831 606.72192 606.72192
49.496738 -74.441299 617.5611 617.5611
98.226807 -176.51796 635.6427 635.6427
159.16258 -107.60979 619.73865 619.73865
168.46092 -81.832329 629.40936 629.40936
15.469912 -100.11066 646.57104 646.57104
178.77766 -78.18959 642.39459 642.39459
39.320671 -87.781609 621.45874 621.45874
62.35178 -82.354187 609.05365 609.05365
122.50098 -58.17807 611.9964 611.9964
136.32141 -187.66623 668.45026 668.45026
178.4588 -157.07797 675.78595 675.78595
26.473831 -42.01355 664.90765 664.90765
31.899363 -74.806229 631.24261 631.24261
159.88654 -77.527283 623.13269 623.13269
35.531376 -112.4773 624.58044 624.58044
185.44696 -117.83723 651.20807 651.20807
189.62173 -131.28217 668.54572 668.54572
97.31356 -56.266541 610.11023 610.11023
81.095192 -63.543015 608.82166 608.82166
153.92279 -143.0416 627.61383 627.61383
102.84098 -175.6736 634.6897 634.6897
159.81393 -128.70749 625.17908 625.17908
35.929264 -155.4384 646.88196 646.88196
33.414764 -117.19675 627.40057 627.40057
1.2865043 -93.116989 685.56842 685.56842
138.44122 -191.33301 686.56299 686.56299
39.731483 -69.11525 626.4212 626.4212
40.977295 -100.63779 619.27881 619.27881
168.09071 -29.320084 680.81659 680.81659
134.75534 -56.827515 616.76416 616.76416
136.80025 -94.886826 607.1582 607.1582
165.87372 -78.480186 627.90594 627.90594
77.380989 -5.0062256 678.44629 678.44629
137.84911 -55.886703 618.62762 618.62762
117.62498 -128.29199 605.71893 605.71893
52.024944 -80.860153 614.37256 614.37256
117.3353 -113.7775 602.48248 602.48248
194.00911 -75.638596 676.15027 676.15027
72.006592 -165.29959 629.6272 629.6272
91.89119 -192.65866 663.27643 663.27643
135.56917 -78.912987 608.94958 608.94958
41.374638 -112.99888 620.03693 620.03693
153.47182 -58.147842 626.58911 626.58911
126.18855 -111.70362 604.20239 604.20239
71.679924 -54.332809 615.66449 615.66449
29.370901 -112.86585 630.38678 630.38678
79.972923 -67.904907 607.43207 607.43207
7.6764412 -128.82411 674.59271 674.59271
112.63612 -53.479782 612.38611 612.38611
19.901371 -80.297409 643.46667 643.46667
83.787529 -84.984589 602.47211 602.47211
35.486023 -140.36365 635.12531 635.12531
134.66257 -13.655151 663.35205 663.35205
75.047997 -13.12117 657.22772 657.22772
77.176468 -148.814 615.76056 615.76056
90.333382 -124.22327 603.46094 603.46094
148.96477 -151.63647 629.74243 629.74243
29.037064 -86.330605 630.88123 630.88123
187.30003 -75.08831 658.07019 658.07019
162.34123 -175.52737 679.77167 679.77167
120.21633 -47.016327 617.63477 617.63477
90.590729 -69.80217 605.13403 605.13403
103.40993 -30.06839 628.6001 628.6001
29.625229 -144.75897 644.82733 644.82733
159.65562 -160.40976 647.16187 647.16187
69.831886 -165.41721 630.6424 630.6424
66.14212 -168.93112 635.95203 635.95203
45.516357 -143.43423 628.27136 628.27136
35.117012 -34.463394 661.33282 661.33282
67.778954 -178.13333 646.54919 646.54919
117.75462 -114.56023 602.67181 602.67181
172.51996 -97.345009 631.19733 631.19733
98.273163 -169.42764 628.04987 628.04987
136.71352 -128.02005 611.30396 611.30396
185.02756 -123.98071 653.14661 653.14661
112.53203 -96.111618 600.86462 600.86462
7.0662694 -118.49805 668.04468 668.04468
142.31563 -174.51006 648.44769 648.44769
51.440353 -161.43951 637.8136 637.8136
145.952 -113.40435 612.20056 612.20056
24.126488 -62.83107 646.50531 646.50531
34.348972 -64.570328 633.40662 633.40662
82.763199 -35.01474 625.97424 625.97424
89.443565 -9.7687378 658.20428 658.20428
109.05618 -189.69063 656.71515 656.71515
153.19385 -75.417603 618.96838 618.96838
130.44568 -45.312714 622.0105 622.0105
66.429176 -72.027611 610.05255 610.05255
161.43536 -38.646698 650.38684 650.38684
19.276638 -98.308586 641.00104 641.00104
75.603447 -82.968201 604.52893 604.52893
123.77435 -21.822601 642.35388 642.35388
98.123177 -109.03068 600.42627 600.42627
73.832848 -84.282005 604.77277 604.77277
87.006851 -166.81796 626.74335 626.74335
102.18741 -48.150208 614.52008 614.52008
82.901482 -90.377831 601.9436 601.9436
39.186054 -36.68158 652.12054 652.12054
46.70557 -58.081497 626.49799 626.49799
183.95868 -88.861885 646.83154 646.83154
22.182552 -123.36826 641.70447 641.70447
60.241352 -90.660629 608.72009 608.72009
152.35512 -164.78101 644.66138 644.66138
70.676025 -71.137329 608.85699 608.85699
102.65688 -174.52129 633.3703 633.3703
145.9037 -26.081238 650.71649 650.71649
57.061081 -19.541748 658.97906 658.97906
116.82788 -34.803604 626.06592 626.06592
158.77216 -43.815155 641.78406 641.78406
161.90282 -123.59254 625.09052 625.09052
119.87693 -66.189514 608.01221 608.01221
139.1203 -110.85953 608.61249 608.61249
82.420784 -173.61533 634.64136 634.64136
192.83961 -134.66324 686.61096 686.61096
165.73576 -71.157806 630.38007 630.38007
105.92558 -89.383163 600.74188 600.74188
68.027061 -108.29478 605.61292 605.61292
117.28593 -159.83105 621.76038 621.76038
110.42069 -44.443726 617.50812 617.50812
63.066334 -175.15204 645.33673 645.33673
132.25481 -163.91255 630.18011 630.18011
169.53558 -92.103111 628.5686 628.5686
74.182816 -149.29175 616.91089 616.91089
198.64595 -85.294846 692.7381 692.7381
184.86641 -92.004761 647.71454 647.71454
176.41083 -118.09066 638.07977 638.07977
122.54791 -43.355911 620.73438 620.73438
26.535595 -42.204636 664.46582 664.46582
133.30527 -22.577606 646.18054 646.18054
53.728687 -109.87699 611.90112 611.90112
144.53477 -69.244568 615.91223 615.91223
72.901985 -143.77026 614.26868 614.26868
114.79578 -2.3559113 684.29279 684.29279
127.61569 -86.632935 604.82281 604.82281
6.3792467 -120.95737 671.78754 671.78754
182.72066 -109.79033 644.66968 644.66968
92.906174 -49.935913 613.72565 613.72565
26.664755 -149.45642 653.35236 653.35236
104.71597 -21.828506 637.81494 637.81494
99.326736 -61.098892 607.87915 607.87915
132.03215 -86.270584 606.26929 606.26929
124.25238 -58.357529 612.37738 612.37738
84.549278 -64.90596 607.64374 607.64374
116.46487 -22.190323 639.38184 639.38184
144.1228 -35.621338 637.48145 637.48145
65.945732 -149.48112 620.05048 620.05048
196.79761 -84.395027 680.33508 680.33508
147.58693 -75.125038 615.63934 615.63934
161.49657 -76.253319 624.80511 624.80511
16.181086 -129.15755 653.91064 653.91064
169.5822 -158.63834 658.52875 658.52875
42.005466 -75.130081 622.42346 622.42346
56.822552 -11.928375 680.5296 680.5296
112.31683 -73.800232 604.28235 604.28235
113.15199 -27.726059 632.15088 632.15088
102.62231 -167.93195 626.6626 626.6626
157.50143 -56.667252 630.60364 630.60364
35.665627 -63.90625 632.48462 632.48462
55.839603 -61.255615 619.07574 619.07574
134.40616 -103.71297 606.17871 606.17871
139.5988 -71.883942 612.58478 612.58478
118.13878 -99.681541 601.65936 601.65936
139.50558 -108.29221 608.50928 608.50928
88.523163 -153.51736 616.30908 616.30908
153.59833 -22.387222 666.78137 666.78137
120.20856 -80.539909 604.01605 604.01605
178.62767 -121.31635 642.00598 642.00598
14.645415 -135.29555 661.6748 661.6748
137.28835 -140.3334 616.43689 616.43689
92.576813 -106.04893 600.45953 600.45953
182.12375 -122.08432 647.38849 647.38849
109.58673 -81.875763 602.12451 602.12451
85.442444 -164.56836 625.03998 625.03998
135.02531 -103.81532 606.41223 606.41223
79.738327 -30.939621 630.57288 630.57288
17.688158 -84.914993 645.2533 645.2533
44.129761 -91.43573 617.50653 617.50653
63.314621 -173.38127 642.82159 642.82159
183.50168 -74.607384 651.18726 651.18726
147.4814 -164.05844 639.65076 639.65076
39.521622 -74.196793 624.65704 624.65704
101.56015 -78.849854 602.27466 602.27466
84.356621 -60.705765 609.38403 609.38403
74.942299 -154.80315 620.19568 620.19568
110.26224 -79.067375 602.75537 602.75537
82.563835 -116.63172 602.94659 602.94659
91.203583 -183.87004 646.2558 646.2558
115.18688 -14.993881 649.56866 649.56866
71.245499 -156.6689 622.78723 622.78723
90.700447 -45.611603 616.60083 616.60083
152.97501 -95.402397 615.30933 615.30933
100.66811 -152.25594 614.74231 614.74231
128.31641 -181.55409 649.53107 649.53107
32.728912 -95.05867 626.17462 626.17462
57.184132 -153.11169 626.88403 626.88403
58.453552 -87.365486 609.92078 609.92078
49.650452 -15.190704 683.49829 683.49829
33.463703 -115.42149 626.95825 626.95825
165.21895 -173.52625 681.5506 681.5506
100.05082 -23.670761 635.39471 635.39471
41.428898 -71.40152 624.16101 624.16101
112.51024 -139.48463 608.98102 608.98102
75.409889 -146.14415 614.75891 614.75891
0.82289857 -95.709656 687.93787 687.93787
103.03381 -127.04163 603.77344 603.77344
120.86472 -43.658295 620.06079 620.06079
123.8415 -171.5162 634.29602 634.29602
157.40852 -46.731384 637.81708 637.81708
20.76775 -133.29956 648.87866 648.87866
174.8512 -143.23059 649.71667 649.71667
5.3293648 -114.4756 671.22626 671.22626
134.29497 -100.06069 606.06464 606.06464
176.3221 -146.99461 655.6554 655.6554
154.61172 -170.20583 654.29767 654.29767
191.73628 -80.728172 665.17114 665.17114
165.95332 -163.55748 659.86768 659.86768
103.75271 -175.5822 634.62988 634.62988
20.250618 -121.46432 643.61456 643.61456
168.82146 -38.326218 661.79071 661.79071
162.9496 -61.684387 632.40369 632.40369
152.78119 -84.930527 616.41138 616.41138
73.370277 -190.67432 667.30408 667.30408
133.42303 -111.65189 606.47388 606.47388
142.44574 -154.79755 627.91956 627.91956
116.94331 -74.877586 604.7016 604.7016
130.82082 -167.9252 633.3949 633.3949
171.98691 -81.909119 632.98804 632.98804
107.21149 -93.827286 600.45154 600.45154
164.26161 -101.0774 623.38873 623.38873
53.121029 -99.519585 611.67035 611.67035
147.67322 -41.616959 634.28333 634.28333
128.90598 -53.804123 616.15259 616.15259
56.915802 -25.65889 648.84192 648.84192
115.83128 -134.69765 607.55841 607.55841
173.45627 -47.89064 656.53979 656.53979
133.28392 -147.36493 618.46014 618.46014
111.56654 -84.188911 601.93762 601.93762
26.843903 -60.188232 644.65375 644.65375
111.32475 -156.9646 618.59497 618.59497
82.326454 -145.97058 612.96924 612.96924
136.28654 -147.32845 619.7298 619.7298
130.44489 -178.90952 646.64838 646.64838
89.276909 -22.375031 637.8761 637.8761
122.88675 -21.34549 642.64441 642.64441
123.62569 -11.986267 658.82465 658.82465
144.2141 -11.903732 683.14288 683.14288
90.065643 -110.90091 601.09357 601.09357
138.36304 -106.57357 607.88556 607.88556
179.55864 -111.3755 640.49353 640.49353
86.130295 -3.4791565 677.83344 677.83344
117.11684 -40.315063 621.61169 621.61169
95.139473 -125.18119 603.34448 603.34448
105.25871 -196.45439 674.13696 674.13696
109.98026 -27.530701 631.8194 631.8194
118.20935 -116.61773 603.0863 603.0863
175.33492 -58.534653 648.95813 648.95813
119.9497 -193.71478 671.37225 671.37225
124.12975 -57.016296 612.99335 612.99335
55.620075 -14.334839 673.69598 673.69598
115.50553 -90.42276 601.67474 601.67474
153.23343 -28.955383 653.96887 653.96887
1.553591 -83.771431 693.29645 693.29645
73.334587 -188.91547 662.81134 662.81134
165.82852 -91.767166 625.17468 625.17468
154.94258 -134.29593 623.80878 623.80878
152.59514 -108.48697 615.37305 615.37305
149.16145 -97.302269 612.96051 612.96051
93.308136 -187.31693 651.71985 651.71985
61.056675 -177.52225 650.26349 650.26349
98.519783 -84.457336 601.22632 601.22632
95.612152 -174.47757 633.4129 633.4129
115.72049 -186.39458 652.15814 652.15814
105.98601 -141.44266 609.18878 609.18878
15.127708 -59.095093 666.48163 666.48163
113.27512 -106.00555 601.0672 601.0672
125.0992 -110.00902 603.71997 603.71997
71.571869 -178.1286 644.43237 644.43237
121.36922 -11.981293 657.62 657.62
127.93878 -41.681091 623.72205 623.72205
38.773788 -89.577362 621.62451 621.62451
177.93993 -112.84452 638.67804 638.67804
48.693119 -63.62468 622.25403 622.25403
97.756996 -55.366074 610.54175 610.54175
70.480415 -113.06194 605.35339 605.35339
130.98373 -134.64944 611.45947 611.45947
184.30751 -92.721664 646.71521 646.71521
70.264694 -14.424133 657.66107 657.66107
101.32423 -181.97986 642.75012 642.75012
177.98543 -43.743774 672.54987 672.54987
154.28731 -113.71415 617.14587 617.14587
141.20284 -146.52927 621.65875 621.65875
70.500252 -46.850616 620.59656 620.59656
102.41095 -44.218689 617.03839 617.03839
8.9800701 -112.07832 660.38324 660.38324
56.423897 -74.037239 613.81964 613.81964
60.108376 -74.834526 611.82202 611.82202
70.492523 -60.527802 612.98706 612.98706
68.889809 -116.44109 606.39526 606.39526
66.917458 -171.08194 637.92822 637.92822
47.561043 -85.655991 616.06903 616.06903
163.05893 -104.83469 622.53906 622.53906
114.43414 -73.267273 604.72662 604.72662
39.338627 -86.089302 621.72681 621.72681
69.159332 -90.409019 605.35925 605.35925
97.111435 -156.54858 617.57483 617.57483
100.61786 -66.348343 605.83429 605.83429
71.779991 -46.208435 620.56384 620.56384
81.866814 -62.301117 609.17059 609.17059
140.70619 -154.96713 627.05054 627.05054
63.707214 -145.97028 618.94714 618.94714
169.03691 -115.76192 629.39215 629.39215
160.9537 -118.92615 623.0166 623.0166
107.21629 -71.270782 604.48792 604.48792
26.285034 -152.40137 657.33618 657.33618
99.667717 -132.15739 605.31213 605.31213
12.610151 -144.25244 679.88196 679.88196
152.32666 -138.96962 624.21552 624.21552
175.68132 -69.306213 642.29187 642.29187
112.98717 -191.86966 662.69989 662.69989
171.18834 -168.97069 686.76123 686.76123
115.32763 -48.615082 615.59235 615.59235
71.362343 -26.491501 638.54773 638.54773
96.503662 -90.65461 600.49902 600.49902
98.048111 -3.0153961 675.70642 675.70642
20.539873 -85.360893 641.07813 641.07813
106.55901 -99.871063 600.21539 600.21539
103.82455 -105.3553 600.2168 600.2168
82.642944 -175.05438 636.23816 636.23816
179.69763 -79.900429 643.04126 643.04126
173.23488 -63.941605 642.23804 642.23804
4.6815987 -91.682579 670.92731 670.92731
163.5714 -115.65265 624.41113 624.41113
59.688938 -43.876297 627.71484 627.71484
6.4243698 -96.911606 664.87079 664.87079
0.93400526 -99.307724 686.38202 686.38202
175.28795 -118.46544 636.82758 636.82758
87.891281 -55.010498 611.51654 611.51654
63.680859 -14.804153 662.28278 662.28278
111.8343 -17.769379 644.33966 644.33966
52.16378 -33.493347 642.65399 642.65399
133.06767 -155.27856 623.5094 623.5094
62.692909 -67.445053 613.11871 613.11871
51.654808 -59.47316 622.4093 622.4093
184.8734 -147.91948 677.63422 677.63422
60.077209 -127.02898 612.38947 612.38947
95.9319 -66.240326 605.95886 605.95886
56.625832 -95.776657 609.9953 609.9953
104.34176 -24.232025 634.88196 634.88196
120.51209 -124.97486 605.36646 605.36646
162.20491 -174.53638 676.02338 676.02338
13.433224 -148.33899 686.97937 686.97937
114.69551 -152.22018 615.99347 615.99347
80.004654 -141.61551 611.29639 611.29639
105.64917 -158.31424 618.95966 618.95966
155.83755 -39.742218 642.98102 642.98102
44.244965 -155.62114 638.37482 638.37482
127.71613 -178.35941 644.39764 644.39764
150.87657 -180.60988 669.7738 669.7738
27.043259 -50.058121 653.27612 653.27612
50.148891 -25.413757 655.82129 655.82129
96.675827 -143.63103 610.08179 610.08179
190.83528 -82.577286 661.98157 661.98157
152.4201 -22.729248 664.20386 664.20386
165.30019 -119.20327 626.73938 626.73938
26.449591 -91.132545 632.83075 632.83075
64.737579 -122.48707 609.16559 609.16559
50.397289 -117.56174 614.96381 614.96381
76.435112 -62.95462 610.15381 610.15381
50.510033 -56.433685 624.81543 624.81543
99.702347 -156.95532 617.80511 617.80511
198.12161 -96.504272 681.0282 681.0282
58.971508 -73.763405 612.65985 612.65985
86.279236 -120.89581 603.17487 603.17487
113.32779 -84.235931 602.15387 602.15387
39.019249 -74.755348 624.87305 624.87305
110.41038 -9.850174 657.99249 657.99249
27.524195 -131.05038 638.49286 638.49286
142.82167 -135.8613 617.05261 617.05261
135.22456 -102.0078 606.43079 606.43079
186.65793 -123.77735 656.12469 656.12469
74.433342 -192.83826 673.0296 673.0296
0.35223925 -98.294617 691.78925 691.78925
47.003029 -170.9671 653.57813 653.57813
15.658591 -65.570923 658.75482 658.75482
52.381157 -112.9882 613.03015 613.03015
25.402645 -68.648407 641.24359 641.24359
24.847668 -124.97221 638.93842 638.93842
92.322258 -56.133987 610.46326 610.46326
186.8645 -71.171753 659.70746 659.70746
144.99074 -73.626305 614.67554 614.67554
50.605415 -113.44255 614.09613 614.09613
71.927246 -135.088 610.66492 610.66492
81.183266 -131.09427 606.83844 606.83844
119.65857 -114.76055 603.06873 603.06873
113.77652 -173.09781 633.16498 633.16498
149.20335 -171.59917 650.47638 650.47638
91.52964 -97.012138 600.40417 600.40417
61.318771 -84.387733 609.11536 609.11536
66.191254 -183.92598 657.41595 657.41595
23.926003 -47.960007 661.211 661.211
93.804703 -29.551178 629.29938 629.29938
30.307302 -132.53824 636.09235 636.09235
11.651182 -126.60955 661.44592 661.44592
122.51885 -184.33258 651.20538 651.20538
89.055801 -155.39659 617.46851 617.46851
64.073799 -176.14372 646.04224 646.04224
29.699886 -94.301331 629.1098 629.1098
146.69913 -72.397362 615.99237 615.99237
75.350891 -69.902725 607.87738 607.87738
95.680946 -150.48553 613.78772 613.78772
96.78772 -68.795349 605.04761 605.04761
22.842596 -158.39967 674.77673 674.77673
159.64862 -74.078857 624.03857 624.03857
184.61012 -128.42508 654.90961 654.90961
95.378571 -87.774834 600.85773 600.85773
14.48702 -112.56664 649.70477 649.70477
121.25098 -135.26076 608.8678 608.8678
82.892532 -128.77701 605.77039 605.77039
80.29303 -139.03311 610.06641 610.06641
114.48964 -68.321991 606.26337 606.26337
85.56205 -40.009949 621.30603 621.30603
8.0696859 -85.346588 663.47473 663.47473
140.18489 -37.164322 633.39032 633.39032
83.687988 -105.96638 601.51996 601.51996
82.556694 -11.580521 656.66724 656.66724
13.962539 -92.420662 649.60052 649.60052
152.68686 -113.92347 616.1535 616.1535
134.30922 -120.06845 608.23871 608.23871
6.4836411 -103.83205 664.78625 664.78625
52.375256 -81.018433 614.14209 614.14209
13.999094 -85.460373 651.0874 651.0874
54.711319 -72.055313 615.33582 615.33582
13.005156 -92.250778 651.2984 651.2984
147.97816 -111.78763 613.05664 613.05664
