# .PCD v0.7 - Point Cloud Data file format
VERSION 0.7
FIELDS x y z intensity
SIZE 4 4 4 4
TYPE F F F F
COUNT 1 1 1 1
WIDTH 1164
HEIGHT 1
VIEWPOINT 0 0 0 1 0 0 0
POINTS 1164
DATA ascii
-38.286694 -172.6745 592.96887 592.96887
-91.976044 -91.598335 611.6618 611.6618
-71.156212 -59.216599 592.7854 592.7854
-54.780708 -148.37885 581.74634 581.74634
-12.312988 -68.46907 555.90332 555.90332
-30.309853 -81.003845 556.61658 556.61658
83.919769 -123.51933 600.96619 600.96619
-1.2331085 -195.94574 621.84161 621.84161
-50.476814 -158.54231 586.55798 586.55798
4.774559 -44.110413 567.21381 567.21381
26.730347 -66.922302 559.4939 559.4939
-59.208843 -119.56672 571.82422 571.82422
42.980499 -150.47598 575.13446 575.13446
-2.5899963 -190.60175 607.75531 607.75531
-59.859127 -112.50957 570.87732 570.87732
-91.133812 -70.919891 620.86279 620.86279
-42.549961 -110.49216 560.11444 560.11444
85.237396 -83.497635 600.37885 600.37885
-74.7313 -112.30631 584.70233 584.70233
-30.284073 -164.43956 579.78308 579.78308
18.196831 -90.123383 552.16681 552.16681
-6.6427536 -44.57814 567.02838 567.02838
-66.62291 -38.031586 608.51141 608.51141
16.323158 -78.490234 553.7146 553.7146
-47.416245 -37.501022 587.9873 587.9873
8.3014603 -3.9798584 623.3313 623.3313
40.314667 -135.49739 565.65155 565.65155
-10.7444 -162.78171 572.90906 572.90906
-99.187614 -104.56759 638.12756 638.12756
52.339417 -99.708572 564.79144 564.79144
-88.32605 -61.090942 623.83527 623.83527
-22.860703 -38.661606 574.40247 574.40247
90.415283 -136.59282 627.95361 627.95361
38.671951 -155.62498 576.44495 576.44495
-43.636616 -123.00427 563.01349 563.01349
90.285034 -82.863602 610.56708 610.56708
-64.192978 -92.311539 573.71008 573.71008
-28.994232 -110.79861 554.90674 554.90674
-63.077103 -32.681137 611.40662 611.40662
-19.677513 -95.447479 552.06091 552.06091
85.828873 -127.66362 606.77814 606.77814
34.846603 -79.633629 558.50726 558.50726
25.313057 -138.38271 561.19678 561.19678
5.2071228 -82.042633 551.76343 551.76343
-38.428307 -141.36363 567.46326 567.46326
-4.0236206 -129.16112 554.43097 554.43097
-60.884426 -91.255554 571.15442 571.15442
-49.046017 -131.50584 568.74811 568.74811
57.872879 -153.88756 588.78839 588.78839
-31.130066 -98.438034 554.98169 554.98169
-46.168907 -161.62996 586.20203 586.20203
52.429993 -28.715591 603.42072 603.42072
-82.553673 -68.279068 603.32373 603.32373
11.031815 -128.30112 554.72491 554.72491
24.797318 -109.4787 553.58813 553.58813
-86.268387 -58.78125 620.69507 620.69507
-31.12088 -19.469482 599.53888 599.53888
-5.0764389 -11.026627 604.63513 604.63513
-58.471096 -20.488251 633.90613 633.90613
61.25618 -68.875778 577.34351 577.34351
36.266815 -90.244102 557.32019 557.32019
-58.469913 -73.46373 573.33777 573.33777
4.8026123 -153.14914 565.42987 565.42987
86.738266 -148.56866 639.15759 639.15759
-9.9679565 -134.35625 556.61749 556.61749
6.700119 -83.740059 551.55853 551.55853
-57.726837 -92.320183 568.70648 568.70648
44.673904 -153.80725 578.52258 578.52258
94.477386 -80.187393 623.89478 623.89478
53.889481 -130.20938 571.36591 571.36591
8.634964 -27.047318 582.15204 582.15204
-53.779819 -30.829041 601.80133 601.80133
-8.485672 -67.125656 555.94006 555.94006
-46.028561 -74.756447 564.88751 564.88751
63.188965 -72.403542 577.57355 577.57355
6.4897156 -153.58511 565.81854 565.81854
-11.426323 -115.75694 551.91248 551.91248
46.897202 -120.60461 564.11578 564.11578
13.205872 -162.34422 572.9364 572.9364
-57.113773 -33.854645 601.3913 601.3913
32.38942 -101.92633 555.41028 555.41028
-16.544189 -46.7565 566.98541 566.98541
-24.655373 -189.3179 612.39117 612.39117
15.886414 -21.261673 590.43579 590.43579
54.617889 -24.011581 614.74878 614.74878
62.838043 -52.74408 588.20795 588.20795
-7.1138229 -152.71164 565.31897 565.31897
-35.682816 -149.17358 570.57269 570.57269
-46.322189 -24.973053 602.82782 602.82782
-88.185402 -133.4832 616.80048 616.80048
8.4500656 -35.376633 574.15533 574.15533
-51.758976 -42.386703 586.74091 586.74091
-43.971169 -108.21271 560.56238 560.56238
-5.9712067 -141.09816 559.03137 559.03137
-26.291153 -23.772018 590.85553 590.85553
96.892181 -88.093636 628.3172 628.3172
-48.92807 -94.320915 562.97247 562.97247
-23.022774 -127.2251 556.57227 556.57227
32.507462 -133.83487 561.69104 561.69104
7.8687286 -55.208893 560.93915 560.93915
-6.9501572 -130.23889 554.93524 554.93524
-74.89019 -101.55261 583.75012 583.75012
-7.2488632 -160.10187 570.40588 570.40588
30.739426 -184.49777 606.23682 606.23682
44.655533 -16.010315 619.15173 619.15173
-60.572475 -170.28868 612.71094 612.71094
81.014526 -98.415283 591.3985 591.3985
-15.02002 -150.83192 565.20313 565.20313
-63.641548 -107.63284 573.24396 573.24396
-12.112137 -68.713058 555.79584 555.79584
-24.869614 -159.50401 573.57501 573.57501
56.192078 -117.6414 569.18396 569.18396
-33.432281 -57.880264 565.68982 565.68982
23.908806 -123.02399 555.66937 555.66937
66.766129 -138.38284 586.21094 586.21094
-30.650612 -64.129654 561.83051 561.83051
47.948807 -83.671547 563.77765 563.77765
21.148933 -171.30112 583.15039 583.15039
-32.666451 -54.679321 567.06061 567.06061
13.6464 -109.82368 551.42377 551.42377
2.915657 -10.047882 606.40967 606.40967
41.550858 -139.40488 568.01965 568.01965
70.20224 -70.29509 585.27551 585.27551
2.9425278 -187.60336 601.86487 601.86487
-16.530319 -8.801178 612.45636 612.45636
-55.203152 -17.323257 639.1756 639.1756
44.399338 -89.384583 561.02802 561.02802
57.962067 -138.50145 578.18054 578.18054
70.794403 -42.202866 609.40881 609.40881
16.842857 -61.333588 559.32904 559.32904
0.188591 -78.304382 552.38208 552.38208
11.751762 -156.78079 568.5271 568.5271
74.657181 -41.697449 617.95135 617.95135
2.8410645 -48.422882 564.37451 564.37451
46.259125 -169.0332 594.3717 594.3717
-49.150528 -174.51181 604.91992 604.91992
-58.30291 -166.59863 603.46625 603.46625
57.596359 -163.23077 598.18756 598.18756
-35.958801 -54.073517 568.77362 568.77362
-73.039536 -87.658821 582.82172 582.82172
96.341949 -90.947533 624.77539 624.77539
51.76506 -74.68425 568.27185 568.27185
20.549667 -55.460938 562.85657 562.85657
42.77655 -140.04924 568.96777 568.96777
-44.727623 -61.573349 569.23596 569.23596
28.890915 -60.566528 562.76288 562.76288
-79.499001 -71.390488 596.50793 596.50793
-50.466434 -86.727783 564.69476 564.69476
-19.193207 -79.230965 554.08197 554.08197
14.150299 -141.01207 559.90131 559.90131
-31.001549 -81.156471 556.81299 556.81299
-43.178959 -33.858994 588.67346 588.67346
13.002075 -159.88367 570.97534 570.97534
39.690857 -64.609833 565.31134 565.31134
-21.599991 -44.469635 569.68921 569.68921
42.826111 -28.757324 594.40857 594.40857
-14.675194 -180.29671 592.23254 592.23254
-20.031181 -96.237434 552.09906 552.09906
-65.978355 -165.66199 613.45746 613.45746
68.40979 -128.14421 582.70953 582.70953
-27.210846 -154.90331 570.97345 570.97345
-61.020721 -101.98051 570.8006 570.8006
7.3196869 -166.49612 575.67175 575.67175
-47.079636 -168.27313 594.12256 594.12256
-39.673264 -118.8269 560.15802 560.15802
18.710884 -156.207 569.4353 569.4353
2.2934418 -46.198532 565.73767 565.73767
24.367889 -118.01082 554.70142 554.70142
69.215958 -36.347549 615.97772 615.97772
57.765869 -104.64568 568.50446 568.50446
5.0270538 -37.93132 571.75549 571.75549
28.253738 -172.13661 586.76996 586.76996
-75.373245 -146.54324 603.60388 603.60388
-0.25427246 -79.66732 552.08923 552.08923
-21.807465 -80.442139 554.3866 554.3866
10.611404 -45.817383 566.62347 566.62347
4.6920319 -76.081703 553.01599 553.01599
-15.285942 -100.47553 551.17633 551.17633
55.682953 -173.89874 612.07397 612.07397
-22.756126 -88.800797 553.26978 553.26978
91.456421 -108.70725 610.50433 610.50433
-66.265984 -44.113434 600.14508 600.14508
64.300644 -139.57397 584.43073 584.43073
-0.43378448 -136.19966 556.78308 556.78308
-70.903015 -88.817688 580.37445 580.37445
12.687431 -21.820969 588.95026 588.95026
-77.983833 -70.195526 594.95264 594.95264
-38.459076 -28.217072 591.9646 591.9646
64.536606 -38.863235 604.20349 604.20349
36.557098 -78.529289 559.43188 559.43188
-9.5821533 -145.05377 561.23999 561.23999
6.9588623 -98.037323 550.26172 550.26172
-4.1096268 -199.14914 637.6485 637.6485
-70.347702 -162.15273 615.52917 615.52917
3.3039703 -110.25106 550.58167 550.58167
-8.6017609 -22.371262 587.5517 587.5517
-73.726089 -51.655624 602.80591 602.80591
55.349884 -117.4127 568.5556 568.5556
-29.037079 -5.1055298 637.67578 637.67578
71.830063 -88.562073 581.37335 581.37335
35.545471 -49.528824 571.32867 571.32867
24.872757 -93.861641 553.33734 553.33734
-56.284126 -98.47789 567.35754 567.35754
-79.540054 -137.59044 602.45697 602.45697
47.635071 -182.31976 619.10736 619.10736
-90.283005 -78.769516 612.60687 612.60687
-72.063805 -120.94255 583.90753 583.90753
-8.6495972 -191.54608 610.69989 610.69989
-67.161079 -149.11519 594.5285 594.5285
71.084076 -107.73266 580.09106 580.09106
42.650803 -170.59152 593.45135 593.45135
22.211411 -22.251297 591.16302 591.16302
80.653702 -62.340607 604.42865 604.42865
53.852066 -92.726921 566.05322 566.05322
29.428391 -108.54053 554.81055 554.81055
-4.5042038 -141.42935 559.09717 559.09717
56.110397 -120.92121 569.91302 569.91302
55.486816 -82.422447 568.68433 568.68433
-20.165382 -144.34041 562.66565 562.66565
28.225525 -49.251968 568.58771 568.58771
37.972794 -146.03625 569.7583 569.7583
-70.888435 -43.314377 608.02893 608.02893
-76.128128 -113.09025 586.49286 586.49286
-80.947762 -131.09805 600.19666 600.19666
19.392525 -73.968796 555.4151 555.4151
-13.021011 -9.4443817 609.62512 609.62512
-42.983894 -125.11855 563.27374 563.27374
-96.196381 -75.654266 637.60876 637.60876
-79.538223 -46.777145 621.00006 621.00006
41.337158 -90.913536 559.39825 559.39825
-75.313126 -115.24128 586.00281 586.00281
-31.876602 -87.334267 556.06671 556.06671
12.246407 -147.50056 562.85803 562.85803
-2.5460052 -49.328415 563.82629 563.82629
-0.49949646 -127.3933 553.82642 553.82642
4.2890701 -126.2808 553.6106 553.6106
24.696388 -98.960831 553.10309 553.10309
70.979126 -67.846893 587.32513 587.32513
-2.0367279 -199.54715 640.71472 640.71472
-37.584625 -81.56234 559.18451 559.18451
-6.161026 -56.199768 560.31396 560.31396
56.051682 -102.04341 567.21094 567.21094
-30.65567 -165.62691 581.05554 581.05554
5.8051453 -182.03378 593.10748 593.10748
28.794724 -115.0231 555.42108 555.42108
81.833359 -109.03156 593.23969 593.23969
-35.639328 -40.363007 578.07458 578.07458
68.386032 -90.400291 577.67297 577.67297
7.6256485 -166.38345 575.60181 575.60181
69.990952 -122.05199 582.06641 582.06641
7.2569122 -77.184311 552.90839 552.90839
76.950928 -93.219353 586.49744 586.49744
-76.301758 -84.004257 587.37268 587.37268
0.42337036 -198.16187 630.91943 630.91943
-47.902466 -100.26296 562.22021 562.22021
-18.009933 -122.4236 554.22516 554.22516
-19.844765 -79.010048 554.26282 554.26282
-57.779072 -40.006165 594.6618 594.6618
-84.019714 -146.15048 621.52509 621.52509
-21.503799 -132.59006 557.93768 557.93768
17.978119 -4.7075653 625.58405 625.58405
-85.79303 -60.755859 616.84198 616.84198
-4.656395 -56.399353 560.12622 560.12622
47.78714 -92.399391 562.48645 562.48645
25.216438 -9.3939819 616.01941 616.01941
-19.299011 -146.11774 563.39343 563.39343
2.1756897 -153.705 565.67303 565.67303
-22.816345 -95.595322 552.73743 552.73743
-21.313652 -41.359192 571.85278 571.85278
76.243896 -70.653885 592.33136 592.33136
58.389801 -154.88542 590.18176 590.18176
60.948074 -46.115417 591.84686 591.84686
-34.162643 -149.35103 570.0163 570.0163
-7.7624969 -198.26266 633.14203 633.14203
28.253983 -33.695938 580.67841 580.67841
-90.713913 -127.32578 617.99548 617.99548
-20.686943 -108.58087 552.54016 552.54016
-86.251328 -138.99384 617.74805 617.74805
-66.654449 -147.59175 592.62219 592.62219
19.256363 -185.50345 601.85071 601.85071
29.349457 -77.003708 557.21112 557.21112
-4.4697495 -43.362442 567.70654 567.70654
-67.985245 -143.44969 590.92267 590.92267
-34.693077 -92.711891 556.49451 556.49451
-70.494225 -78.803467 582.31494 582.31494
-96.503143 -93.894997 624.50739 624.50739
84.179062 -139.47624 613.18274 613.18274
35.810303 -165.14243 583.11139 583.11139
-38.171196 -80.21904 559.71338 559.71338
22.661041 -180.66162 595.409 595.409
-89.386253 -133.12436 619.78619 619.78619
-8.2199936 -117.51304 551.88922 551.88922
64.457825 -140.75845 585.31665 585.31665
90.602402 -121.64836 613.63306 613.63306
-16.703568 -135.86536 558.15955 558.15955
-29.898888 -129.48926 559.24518 559.24518
-24.928513 -53.081268 565.28162 565.28162
36.900208 -45.177399 574.94763 574.94763
-53.730358 -100.88379 565.66577 565.66577
67.158051 -111.98997 576.88342 576.88342
45.437149 -186.7722 629.8493 629.8493
13.094391 -162.95204 573.41296 573.41296
-26.766884 -109.39027 554.1076 554.1076
-1.0610886 -21.576736 587.9624 587.9624
-7.5565491 -186.01799 599.56384 599.56384
-23.631325 -194.62492 627.91644 627.91644
1.3960571 -149.00787 562.84338 562.84338
53.37233 -121.79581 568.29114 568.29114
-26.290398 -103.13417 553.56873 553.56873
-69.405457 -55.32518 593.54608 593.54608
-50.021629 -21.605118 613.22937 613.22937
-49.711834 -86.454369 564.29559 564.29559
50.999695 -69.602417 569.53247 569.53247
-10.746971 -180.0069 590.97968 590.97968
10.17643 -173.38615 582.83667 582.83667
7.9688644 -62.309586 557.7182 557.7182
26.976646 -88.933273 554.34546 554.34546
-23.58757 -36.903183 576.0918 576.0918
-89.845879 -119.07784 610.45569 610.45569
38.787354 -131.40546 563.34412 563.34412
4.2713776 -54.952179 560.82349 560.82349
-78.543671 -48.827591 615.18225 615.18225
21.669174 -131.14751 557.47821 557.47821
38.131332 -35.18187 584.0863 584.0863
29.932526 -154.35565 571.58118 571.58118
-26.030899 -174.72882 588.86084 588.86084
28.645355 -125.91364 557.7616 557.7616
47.110199 -110.7145 562.44531 562.44531
61.267273 -112.62348 571.98096 571.98096
46.776947 -144.17502 573.44617 573.44617
32.993973 -80.391052 557.65887 557.65887
-64.242073 -66.217163 581.21283 581.21283
-57.274864 -57.388107 579.97278 579.97278
38.788086 -14.463913 615.66254 615.66254
58.480438 -27.823456 612.97858 612.97858
-41.428905 -64.976196 565.99414 565.99414
-70.676315 -133.5318 587.70654 587.70654
-10.427071 -12.501923 602.7204 602.7204
76.46669 -83.327423 587.75153 587.75153
26.091003 -160.08463 574.44141 574.44141
40.009537 -171.70862 592.92889 592.92889
87.31163 -100.84557 601.2561 601.2561
59.348709 -139.96054 580.13666 580.13666
-58.555531 -139.18567 579.03711 579.03711
56.66713 -80.835724 569.8653 569.8653
-31.380173 -32.679031 583.04352 583.04352
33.061142 -67.232712 561.49426 561.49426
-33.040474 -117.45455 557.24402 557.24402
-24.819633 -43.980118 570.96991 570.96991
-59.978443 -50.309128 587.28314 587.28314
48.433533 -164.18657 590.55023 590.55023
-34.608856 -72.164787 560.40405 560.40405
-61.119423 -76.045433 574.56396 574.56396
-61.030491 -80.643333 573.18463 573.18463
61.950226 -129.38997 577.2099 577.2099
48.724442 -182.85895 622.42603 622.42603
82.30603 -98.24852 593.23163 593.23163
-80.937073 -102.36986 591.31799 591.31799
-34.662292 -38.391144 579.26898 579.26898
35.732513 -166.83881 584.76379 584.76379
6.2697449 -80.141426 552.19238 552.19238
-5.8848114 -77.634903 552.71088 552.71088
19.649696 -123.90734 554.90881 554.90881
-7.4245834 -105.62363 550.43469 550.43469
-67.229431 -62.597412 586.11536 586.11536
-21.708687 -35.900742 576.37921 576.37921
-19.250481 -184.10503 599.44543 599.44543
-96.889915 -116.74628 631.78168 631.78168
-34.65316 -61.916489 564.27484 564.27484
25.055435 -64.610703 559.88995 559.88995
17.045303 -8.6885376 612.96387 612.96387
45.376083 -95.515045 561.00061 561.00061
9.8969574 -109.80364 550.97504 550.97504
68.028503 -45.742569 600.72266 600.72266
70.824356 -147.85866 598.10144 598.10144
-18.266144 -9.1061249 612.5213 612.5213
-15.401459 -143.03705 561.05841 561.05841
21.184906 -130.18863 557.04919 557.04919
-73.423355 -127.92179 588.11798 588.11798
32.638733 -58.897186 564.88086 564.88086
75.157928 -101.84843 584.06165 584.06165
20.126572 -56.668076 562.15204 562.15204
79.008896 -119.61918 591.92517 591.92517
-0.55012512 -4.7359161 619.59521 619.59521
-22.613808 -20.543091 593.65094 593.65094
-21.805992 -119.64595 554.4043 554.4043
-91.779373 -67.456207 627.2525 627.2525
-22.801903 -145.66139 564.00519 564.00519
51.391968 -90.32283 564.76373 564.76373
-19.342247 -67.521072 557.42029 557.42029
46.380478 -33.425568 591.54749 591.54749
-88.69091 -97.83461 603.85638 603.85638
92.418884 -122.33292 619.0163 619.0163
-30.523613 -10.442902 617.6297 617.6297
-31.067947 -183.50899 604.60144 604.60144
74.556412 -135.19418 593.40747 593.40747
-28.744774 -82.001266 555.9267 555.9267
-75.767876 -159.56796 623.33752 623.33752
-29.561966 -31.624268 583.28528 583.28528
-8.660759 -86.220184 551.33337 551.33337
-40.849556 -116.80872 560.28503 560.28503
-66.760956 -154.84338 599.64948 599.64948
36.069016 -189.98944 625.48621 625.48621
16.321495 -41.356003 570.66217 570.66217
26.227173 -23.443115 591.2533 591.2533
-14.826279 -10.401779 608.13904 608.13904
4.7927399 -180.82855 591.31628 591.31628
44.761749 -15.940445 619.49792 619.49792
-15.651062 -140.07388 559.72748 559.72748
-55.890163 -82.524399 568.93896 568.93896
-13.534012 -25.02771 585.22357 585.22357
76.67424 -85.193588 587.53534 587.53534
-37.994034 -46.583908 574.48065 574.48065
28.552856 -80.702881 556.12585 556.12585
-12.808884 -60.8591 558.87415 558.87415
-4.6548691 -94.387505 550.26617 550.26617
-3.6784744 -171.71304 580.40326 580.40326
18.816925 -174.21364 585.67072 585.67072
56.838257 -142.57094 579.59314 579.59314
96.217361 -124.82066 638.76813 638.76813
34.765366 -59.617706 565.37946 565.37946
-59.621136 -37.772995 599.27405 599.27405
-5.7562332 -6.0779877 616.15442 616.15442
-78.32338 -102.73238 587.88733 587.88733
58.827835 -160.78812 596.66998 596.66998
-43.862934 -106.05503 560.3374 560.3374
-9.8540115 -55.467148 561.0072 561.0072
21.836624 -8.032608 617.36322 617.36322
-39.956783 -115.56509 559.66071 559.66071
-21.255508 -19.385376 594.77783 594.77783
24.484863 -107.09865 553.30408 553.30408
38.24353 -175.18269 596.28784 596.28784
4.8514938 -37.938278 571.73889 571.73889
-54.902241 -96.965263 566.47437 566.47437
-58.811401 -100.88298 569.12701 569.12701
72.054337 -58.068039 594.77423 594.77423
-6.6854019 -114.68192 551.30981 551.30981
-73.324852 -133.0307 590.56567 590.56567
63.054993 -168.70256 613.88873 613.88873
82.339966 -67.703171 603.34119 603.34119
87.452057 -61.126205 621.00061 621.00061
-44.922394 -89.844826 561.23712 561.23712
-38.256538 -67.560196 563.48932 563.48932
-32.971535 -95.739471 555.68817 555.68817
51.569763 -61.326248 573.54803 573.54803
-72.801567 -144.24475 597.63269 597.63269
0.52227783 -144.69148 560.54388 560.54388
73.339233 -110.84423 582.88995 582.88995
-74.092865 -162.36198 625.0755 625.0755
4.146492 -170.59064 579.29095 579.29095
-26.336037 -50.800629 567.01904 567.01904
-39.478172 -11.893646 623.94727 623.94727
39.740311 -51.978104 571.80408 571.80408
81.87677 -154.74031 632.68835 632.68835
7.4473419 -100.60788 550.27954 550.27954
59.455139 -119.79823 572.06982 572.06982
11.90995 -198.26102 635.75482 635.75482
-18.350578 -8.0931244 615.12335 615.12335
85.087814 -147.02251 626.57037 626.57037
-28.659569 -135.98215 561.20862 561.20862
-83.296684 -88.03289 595.97729 595.97729
44.606369 -128.07166 565.01617 565.01617
-59.872746 -108.47668 570.35455 570.35455
4.0378571 -142.25079 559.45404 559.45404
52.95459 -48.458588 582.62573 582.62573
51.891922 -104.84562 564.65515 564.65515
56.924469 -49.166412 585.38147 585.38147
-74.382835 -73.2034 588.76984 588.76984
17.510056 -68.827621 556.61005 556.61005
58.524536 -102.3869 568.94952 568.94952
54.206924 -38.435287 592.80389 592.80389
24.541412 -77.24929 555.76556 555.76556
-39.699818 -65.893234 564.79053 564.79053
60.135086 -85.659531 571.39899 571.39899
-85.921371 -148.26767 633.0368 633.0368
62.741119 -94.452202 572.32904 572.32904
-4.9090195 -77.665421 552.64978 552.64978
-6.8543701 -50.300476 563.49579 563.49579
-85.555412 -100.54154 598.23151 598.23151
37.853668 -72.836922 561.51685 561.51685
-20.676605 -18.346588 596.1001 596.1001
-79.79837 -106.19543 590.05139 590.05139
-50.691734 -52.645264 577.97308 577.97308
40.908997 -62.581238 566.77563 566.77563
-1.1125336 -38.870056 570.86786 570.86786
-80.433426 -81.394722 593.57031 593.57031
24.176994 -120.49408 555.15558 555.15558
64.936615 -99.870392 573.95251 573.95251
-37.66423 -123.09719 560.28979 560.28979
-88.447235 -89.561554 604.52338 604.52338
-65.850754 -165.34554 612.66852 612.66852
-50.943005 -139.63925 573.62238 573.62238
26.061699 -10.238388 614.45227 614.45227
-6.0158386 -28.463211 580.38464 580.38464
53.284805 -23.838974 613.11871 613.11871
64.427505 -93.277275 573.81665 573.81665
4.1225586 -195.92937 622.06146 622.06146
24.709167 -115.7811 554.39447 554.39447
-84.734634 -129.97569 606.1651 606.1651
-1.3371735 -163.00699 572.35767 572.35767
-5.2189255 -98.207947 550.15234 550.15234
26.7117 -6.5543823 626.45422 626.45422
42.613708 -35.649353 586.41492 586.41492
-34.077988 -65.334198 562.61023 562.61023
-10.860352 -194.6615 619.64783 619.64783
41.244263 -29.754364 591.99603 591.99603
13.046738 -12.587677 603.21466 603.21466
-51.032784 -116.07126 565.51703 565.51703
9.4591751 -169.64345 578.86414 578.86414
43.336304 -121.19073 562.40479 562.40479
10.316193 -65.871445 556.57184 556.57184
70.121689 -140.19528 591.11633 591.11633
-33.410088 -65.738754 562.19379 562.19379
2.8314972 -112.96505 550.88446 550.88446
-37.736259 -74.486885 560.97723 560.97723
-75.946869 -37.716522 631.21594 631.21594
-76.848419 -48.01387 612.69366 612.69366
66.71669 -134.25313 583.85162 583.85162
-10.130623 -16.791473 595.46826 595.46826
-65.579918 -32.856171 615.48944 615.48944
51.849747 -64.306244 572.29828 572.29828
68.646667 -53.645279 593.97437 593.97437
50.307602 -179.20065 615.41095 615.41095
-16.449867 -177.68016 589.21191 589.21191
-8.6250763 -96.5793 550.4314 550.4314
-17.56089 -83.745071 552.90527 552.90527
-69.559982 -170.83484 638.0069 638.0069
2.0399094 -30.204422 578.41498 578.41498
50.299469 -51.318909 578.5849 578.5849
23.929024 -159.60674 573.3551 573.3551
46.71669 -35.598007 589.42004 589.42004
-85.19516 -86.951782 599.28973 599.28973
28.562271 -44.513474 571.86267 571.86267
69.399353 -114.87782 579.55585 579.55585
-76.132973 -70.50795 592.25928 592.25928
-18.58255 -85.809669 552.77179 552.77179
17.979156 -83.676079 552.99341 552.99341
11.615417 -95.087967 550.7984 550.7984
68.564697 -131.84933 584.54388 584.54388
4.2900543 -68.633591 555.14355 555.14355
-53.303635 -154.81415 585.54742 585.54742
-36.104427 -24.103439 595.81348 595.81348
45.091599 -67.466095 566.88385 566.88385
-51.86364 -179.97838 619.7738 619.7738
0.5615921 -82.799278 551.49207 551.49207
75.926132 -39.47316 626.08923 626.08923
76.367981 -39.676544 626.99976 626.99976
-91.450317 -67.454605 625.96594 625.96594
50.738174 -48.134369 581.18433 581.18433
12.698494 -92.842247 551.06812 551.06812
87.22673 -142.22913 625.33832 625.33832
66.285736 -27.338226 631.93158 631.93158
44.288773 -81.931755 562.18176 562.18176
-78.450813 -88.951019 588.98041 588.98041
-56.90659 -24.616821 617.15161 617.15161
81.146118 -107.0236 591.98297 591.98297
-44.837372 -138.78259 569.46729 569.46729
8.9586029 -0.74156189 641.78381 641.78381
46.775742 -158.96695 584.15985 584.15985
49.67572 -36.740402 590.5816 590.5816
-64.014076 -73.39225 577.92902 577.92902
-90.467224 -112.16457 609.16248 609.16248
30.445053 -52.215652 567.60004 567.60004
-59.95829 -136.86609 578.96552 578.96552
25.943825 -174.09177 588.05383 588.05383
1.5214233 -172.5218 581.16492 581.16492
-12.050514 -157.22229 568.88037 568.88037
70.939178 -162.07323 616.61517 616.61517
80.20726 -122.2513 594.57733 594.57733
35.775879 -121.38363 559.09991 559.09991
-71.954819 -71.051208 586.87732 586.87732
77.547287 -144.00797 604.7262 604.7262
49.497406 -130.98273 568.82068 568.82068
41.724518 -68.499222 564.7547 564.7547
-46.917004 -107.31992 561.9931 561.9931
-17.096237 -195.61482 626.21924 626.21924
-37.366859 -180.32651 603.61713 603.61713
-39.867546 -177.51344 600.9873 600.9873
65.97641 -132.55206 582.2691 582.2691
54.170135 -108.11107 566.33514 566.33514
45.021515 -119.45543 562.85327 562.85327
-61.063442 -156.63527 594.64929 594.64929
-20.242737 -85.619377 553.1319 553.1319
-0.87982178 -4.2919312 621.03119 621.03119
-12.620667 -100.25854 550.79993 550.79993
-74.753326 -97.997734 583.60773 583.60773
-0.4368515 -162.3457 571.81543 571.81543
42.894684 -111.09163 560.35059 560.35059
-66.77887 -131.1911 582.41528 582.41528
-24.779327 -184.29309 602.24377 602.24377
6.1069641 -136.64609 557.15729 557.15729
35.877197 -128.78497 561.20667 561.20667
35.773697 -136.43951 564.02087 564.02087
-33.980927 -108.90335 556.37292 556.37292
4.840004 -191.57375 610.11487 610.11487
-3.8319702 -1.8086395 631.45886 631.45886
-10.305611 -36.49884 573.44025 573.44025
18.430862 -5.9888916 621.32568 621.32568
4.7362366 -111.32277 550.75604 550.75604
17.28624 -141.44298 560.64862 560.64862
49.851639 -71.945709 567.97699 567.97699
5.30616 -55.73172 560.48932 560.48932
-64.549843 -150.4138 592.6261 592.6261
12.27211 -28.894669 580.76544 580.76544
23.398064 -3.4344025 638.70331 638.70331
83.011429 -127.94365 601.74799 601.74799
-16.817955 -97.369301 551.45947 551.45947
78.437683 -140.91171 603.3764 603.3764
19.206177 -92.689987 552.13434 552.13434
6.079277 -163.28526 572.81177 572.81177
-39.785057 -146.22441 570.75067 570.75067
-29.073456 -182.42781 601.41614 601.41614
13.254532 -135.71133 557.53912 557.53912
4.9958191 -0.54467773 640.85229 640.85229
10.526039 -175.92529 585.77734 585.77734
-19.107368 -189.67322 610.07983 610.07983
77.546539 -81.42115 589.65631 589.65631
20.415077 -123.59105 554.99109 554.99109
10.279617 -137.88255 558.02588 558.02588
29.252838 -125.52924 557.84509 557.84509
5.384491 -136.19669 556.93652 556.93652
11.625183 -92.913971 550.93109 550.93109
-2.761528 -128.96097 554.32538 554.32538
39.276779 -140.33542 567.35382 567.35382
22.391663 -16.255554 600.14539 600.14539
-4.9896317 -11.927048 602.90161 602.90161
91.135178 -137.46594 632.95056 632.95056
88.996811 -74.002968 612.53369 612.53369
-42.675495 -24.183197 600.69873 600.69873
-57.793724 -54.597565 582.18774 582.18774
-7.0600891 -144.95569 560.95428 560.95428
5.1593094 -85.599411 551.17688 551.17688
34.78009 -52.064651 569.42365 569.42365
74.451385 -39.361847 622.07141 622.07141
-0.85520935 -1.679245 631.77094 631.77094
-6.684639 -148.85779 563.00439 563.00439
-51.691086 -82.850647 566.13147 566.13147
27.717102 -125.53928 557.37439 557.37439
-14.713608 -176.94684 587.84943 587.84943
10.735855 -133.63947 556.44183 556.44183
55.340866 -133.15889 573.59399 573.59399
-52.185963 -113.56158 565.7818 565.7818
-7.1822205 -23.311478 586.22473 586.22473
6.246376 -8.4309235 610.30005 610.30005
48.434769 -148.46288 577.16168 577.16168
-52.593727 -31.38353 599.74384 599.74384
-26.81472 -182.36414 600.02881 600.02881
41.471451 -59.55835 568.48566 568.48566
47.678818 -172.27307 599.96667 599.96667
46.638397 -69.314407 567.03461 567.03461
-65.847122 -163.20689 609.14606 609.14606
54.524261 -181.35226 629.77838 629.77838
22.038651 -72.082588 556.53925 556.53925
7.906105 -134.76617 556.5719 556.5719
71.757813 -57.807602 594.58685 594.58685
41.960434 -31.592987 590.33594 590.33594
-25.966553 -176.01186 590.43542 590.43542
-0.051429749 -168.44145 577.0907 577.0907
31.274017 -101.97786 555.03674 555.03674
-42.236965 -147.69409 572.9201 572.9201
23.799324 -139.5912 561.30878 561.30878
3.9310837 -56.035568 560.26886 560.26886
-44.712112 -171.72845 596.55981 596.55981
-33.004745 -51.820404 568.82483 568.82483
-39.907944 -76.574158 561.35132 561.35132
-26.370262 -170.53352 584.20007 584.20007
-21.85881 -104.19413 552.50842 552.50842
-30.545044 -73.193756 558.63025 558.63025
-43.242115 -23.493256 602.28375 602.28375
-71.252274 -136.56604 590.11646 590.11646
4.5503235 -165.8869 574.91199 574.91199
-49.256748 -16.291428 626.19562 626.19562
-18.461937 -20.500214 592.21643 592.21643
-0.052383423 -63.976837 556.71375 556.71375
-73.539116 -76.15036 586.57135 586.57135
61.847427 -60.30014 582.18542 582.18542
-45.502739 -149.70654 576.11658 576.11658
49.903931 -165.14027 592.84808 592.84808
35.833923 -137.26059 564.39874 564.39874
-50.046032 -143.34473 575.05585 575.05585
64.56929 -169.59692 618.58228 618.58228
46.125839 -121.1077 563.82068 563.82068
10.746895 -112.02938 551.30957 551.30957
-30.39679 -195.05685 643.65735 643.65735
-54.525852 -155.93823 587.56726 587.56726
12.483307 -119.5343 552.72424 552.72424
-69.532761 -148.71201 597.15747 597.15747
21.495544 -58.47699 561.60443 561.60443
-12.686829 -166.09473 576.03699 576.03699
83.139099 -146.12341 619.00769 619.00769
50.229416 -123.75462 566.85718 566.85718
-36.604614 -118.16198 558.72986 558.72986
-31.579636 -115.1 556.32654 556.32654
7.1792984 -188.02759 603.1001 603.1001
29.883636 -152.89627 570.57111 570.57111
11.200943 -104.3438 550.72424 550.72424
-19.615417 -133.27908 557.76257 557.76257
11.465393 -178.89676 589.63574 589.63574
8.1230545 -5.3891754 618.65027 618.65027
-24.79731 -146.95012 565.2605 565.2605
17.754387 -31.009628 579.82086 579.82086
-5.3229065 -92.711494 550.40808 550.40808
9.8147278 -151.48235 564.83405 564.83405
-27.149338 -122.55614 556.43646 556.43646
-55.295094 -102.87984 566.72839 566.72839
32.458115 -16.117294 606.29462 606.29462
-27.077667 -125.45448 557.16211 557.16211
60.301895 -126.83945 574.87793 574.87793
-63.989723 -86.545738 574.34088 574.34088
-46.606743 -36.273209 588.62646 588.62646
-65.728271 -42.935974 600.77106 600.77106
-58.547478 -25.884598 617.15033 617.15033
-69.347504 -125.48898 582.61133 582.61133
-51.512127 -28.752823 602.35193 602.35193
-97.574883 -83.830688 635.24548 635.24548
-12.446617 -81.83429 552.45471 552.45471
-18.743233 -91.013756 552.18414 552.18414
38.377335 -49.511993 572.68158 572.68158
41.84256 -171.25368 593.67847 593.67847
-88.897186 -100.09274 604.20392 604.20392
-41.429592 -139.7175 568.10913 568.10913
-28.414833 -35.067612 579.45654 579.45654
-48.069477 -51.63501 576.85522 576.85522
12.113426 -137.46443 558.07788 558.07788
-68.984406 -110.09634 578.31165 578.31165
-62.006573 -55.982513 585.05658 585.05658
-88.161606 -80.617607 606.9668 606.9668
28.59758 -108.7367 554.57544 554.57544
-73.921318 -147.03552 601.79938 601.79938
12.767067 -53.146942 562.58264 562.58264
-17.768372 -196.37685 630.10553 630.10553
73.125458 -68.587143 589.45331 589.45331
-15.355247 -182.1886 595.14337 595.14337
18.436859 -98.004303 551.73456 551.73456
-24.243797 -195.2742 631.69519 631.69519
26.832703 -60.960205 561.93243 561.93243
39.384689 -46.168259 575.49506 575.49506
55.504715 -67.209961 573.55371 573.55371
-3.8231735 -52.86734 561.88702 561.88702
-9.2740555 -176.88588 586.73425 586.73425
0.14864349 -64.115433 556.6604 556.6604
-86.436302 -130.8959 610.32367 610.32367
92.966415 -109.41575 614.38275 614.38275
21.599922 -93.15567 552.60083 552.60083
-30.825943 -35.606125 579.97723 579.97723
-38.008636 -176.92299 598.6366 598.6366
-73.397171 -134.14343 591.28815 591.28815
48.739075 -15.434067 628.24902 628.24902
88.762909 -96.905838 604.04816 604.04816
52.473877 -65.593079 572.13696 572.13696
-3.1531296 -181.9026 592.71106 592.71106
-2.8309708 -117.70341 551.62024 551.62024
77.166153 -122.36125 590.45709 590.45709
-53.353168 -94.096527 565.6283 565.6283
64.608688 -114.54744 575.07275 575.07275
29.888229 -186.17682 609.00916 609.00916
68.17865 -104.91973 577.0105 577.0105
-10.856628 -187.21133 602.28925 602.28925
-83.062416 -149.86664 625.22192 625.22192
20.156219 -138.599 559.97864 559.97864
-2.7450333 -79.138077 552.23883 552.23883
13.154961 -187.6346 603.6629 603.6629
-31.166084 -151.85266 570.37604 570.37604
61.29599 -106.23129 571.23468 571.23468
-4.1543655 -47.26947 565.13403 565.13403
-3.94104 -151.35367 564.28381 564.28381
70.657593 -74.23571 584.0932 584.0932
-92.982262 -99.556259 613.2019 613.2019
39.784409 -117.10399 559.86316 559.86316
-28.985123 -124.49342 557.4801 557.4801
95.034973 -108.23777 619.99182 619.99182
-62.275799 -30.635529 613.802 613.802
-61.608139 -149.37589 588.62854 588.62854
-6.778923 -120.04355 552.2641 552.2641
24.478409 -123.28795 555.88049 555.88049
45.897903 -57.451569 572.00635 572.00635
4.4102554 -191.65579 610.25372 610.25372
29.198639 -19.579468 598.23151 598.23151
11.555695 -18.375702 593.39667 593.39667
45.952866 -68.524887 566.94788 566.94788
29.733963 -40.906723 575.00751 575.00751
-31.075432 -57.45787 565.00305 565.00305
-41.943466 -78.697823 561.75623 561.75623
83.263535 -153.18575 634.55786 634.55786
-90.718704 -138.38969 632.78522 632.78522
-75.305756 -72.113396 590.40656 590.40656
-18.854866 -196.16788 630.09436 630.09436
-42.819302 -78.71846 562.17285 562.17285
10.02742 -33.472092 576.01697 576.01697
-45.974213 -48.957626 577.32916 577.32916
-30.759903 -192.20212 626.49261 626.49261
11.666573 -59.455185 559.33575 559.33575
92.311722 -95.568207 611.80438 611.80438
-19.530281 -58.750076 561.0224 561.0224
-61.881413 -91.206184 571.94 571.94
-78.248375 -144.81775 606.77313 606.77313
-51.177849 -147.74402 578.57635 578.57635
54.144821 -73.131416 570.33557 570.33557
-44.575024 -36.185272 587.22461 587.22461
-50.753193 -146.39124 577.39166 577.39166
11.028763 -118.02859 552.25885 552.25885
-15.993057 -25.180298 585.60876 585.60876
-48.53204 -174.46402 604.17694 604.17694
-25.079788 -184.31964 602.44788 602.44788
68.588898 -166.12581 619.62006 619.62006
41.886719 -22.772079 602.23651 602.23651
-1.4313431 -128.87109 554.26904 554.26904
10.552406 -86.98275 551.414 551.414
-24.577759 -106.95849 553.31744 553.31744
-39.7355 -14.798386 615.91516 615.91516
-22.917191 -23.969727 589.22009 589.22009
-5.1080856 -196.58913 624.61401 624.61401
-20.650917 -63.006729 559.41833 559.41833
-9.7275467 -33.665314 575.80371 575.80371
-17.265259 -120.67451 553.69592 553.69592
68.561203 -165.17639 617.57471 617.57471
-5.9950256 -55.157303 560.81934 560.81934
-51.005901 -172.30385 603.41083 603.41083
33.362137 -168.60303 585.34253 585.34253
37.696655 -180.37344 603.96661 603.96661
32.685547 -58.891586 564.90149 564.90149
83.447998 -65.902466 606.71271 606.71271
-65.241577 -29.625229 621.87659 621.87659
-71.4235 -49.278152 601.77161 601.77161
-30.54715 -154.74023 572.08734 572.08734
49.553574 -131.1799 568.93054 568.93054
0.35600281 -74.527863 553.29919 553.29919
-51.061417 -90.294518 564.56854 564.56854
53.469894 -143.69975 577.67224 577.67224
45.671066 -168.49391 593.23083 593.23083
48.17775 -91.411385 562.79254 562.79254
52.434952 -39.02623 590.56287 590.56287
34.768707 -37.196732 580.38043 580.38043
-94.172401 -81.874146 621.66254 621.66254
-31.381485 -43.841934 573.43976 573.43976
47.901245 -41.048782 584.95984 584.95984
51.723297 -171.57521 603.07782 603.07782
-20.511414 -161.85648 574.15106 574.15106
60.24852 -167.44789 607.328 607.328
84.218872 -70.448547 604.90131 604.90131
24.037895 -60.663528 561.25983 561.25983
-12.03363 -162.83006 573.13928 573.13928
-91.632042 -121.506 616.2204 616.2204
-56.514858 -89.168076 568.21527 568.21527
-89.863747 -71.387238 616.74615 616.74615
77.631622 -147.10091 608.10925 608.10925
-37.756126 -125.03905 560.85114 560.85114
-41.278915 -116.12665 560.35638 560.35638
72.364563 -106.61576 581.30066 581.30066
54.375 -148.95023 581.82935 581.82935
-54.526413 -83.71669 567.77026 567.77026
10.669624 -145.79877 561.74677 561.74677
-13.71154 -38.076126 572.68616 572.68616
-91.40654 -67.344971 625.94812 625.94812
-68.839539 -111.17587 578.33258 578.33258
-40.737579 -133.09494 564.88141 564.88141
1.9302216 -66.949631 555.63928 555.63928
19.621323 -181.8136 595.94873 595.94873
90.083054 -121.04054 612.02185 612.02185
1.3245468 -45.339294 566.27155 566.27155
-8.7451248 -172.1028 581.26349 581.26349
39.303177 -165.44879 585.41119 585.41119
46.213989 -34.214478 590.53125 590.53125
37.911652 -11.6203 622.58221 622.58221
48.796799 -73.04187 566.98114 566.98114
24.885902 -76.970993 555.92365 555.92365
-62.627113 -39.029449 601.41565 601.41565
73.119797 -166.46556 634.64343 634.64343
36.205582 -52.421829 569.84094 569.84094
-11.733498 -56.040405 560.95013 560.95013
52.476959 -37.168671 592.56836 592.56836
11.16011 -165.9846 575.6933 575.6933
63.403381 -54.969269 587.13312 587.13312
14.279381 -134.45316 557.21484 557.21484
-84.079163 -72.208069 603.54248 603.54248
64.796036 -40.537491 602.40082 602.40082
10.930489 -126.63132 554.23309 554.23309
44.87204 -99.986481 560.63281 560.63281
-3.8561554 -60.869629 558.05469 558.05469
-61.509743 -24.773041 626.38947 626.38947
-51.801689 -38.408371 590.64465 590.64465
-79.493134 -139.95013 604.34009 604.34009
68.115631 -59.147339 589.24377 589.24377
-11.365906 -80.042732 552.6731 552.6731
56.999054 -29.448059 607.88666 607.88666
-30.759674 -16.442978 604.48004 604.48004
-9.6658554 -105.65947 550.62927 550.62927
-8.3760071 -36.362488 573.31812 573.31812
-86.118423 -117.01298 602.10242 602.10242
86.66478 -63.890579 615.57147 615.57147
-53.141258 -75.443161 568.92615 568.92615
-68.882004 -82.390366 579.6781 579.6781
35.700134 -134.35226 563.13562 563.13562
63.80925 -161.6907 603.92792 603.92792
30.111847 -24.516678 591.7287 591.7287
9.8303528 -108.8215 550.8761 550.8761
64.387085 -113.08677 574.61407 574.61407
42.76358 -10.416138 637.91663 637.91663
80.717606 -127.62531 597.83191 597.83191
7.4635162 -172.84592 581.8988 581.8988
-26.116112 -149.12646 566.90643 566.90643
64.664902 -126.65731 578.53088 578.53088
-4.0098877 -48.546265 564.34705 564.34705
-48.422421 -135.71362 570.12628 570.12628
31.900757 -38.201157 578.14429 578.14429
28.671524 -105.31396 554.34589 554.34589
8.0722122 -161.3862 571.47247 571.47247
37.753006 -160.05173 579.51239 579.51239
21.852638 -97.886574 552.43976 552.43976
70.84964 -85.528114 580.92834 580.92834
-12.00621 -146.64664 562.36475 562.36475
38.698914 -183.86957 611.68176 611.68176
-5.799942 -80.399834 552.11133 552.11133
-5.2904816 -104.07003 550.22302 550.22302
-58.409412 -82.904922 570.65204 570.65204
66.793961 -39.145935 607.159 607.159
74.087021 -96.424507 582.93042 582.93042
43.356155 -57.499527 570.53961 570.53961
45.211166 -174.80733 601.42206 601.42206
-11.19207 -169.28281 578.76355 578.76355
-96.415855 -115.84251 628.71625 628.71625
20.090996 -137.0459 559.31396 559.31396
-15.381798 -96.021065 551.2702 551.2702
-19.370369 -2.2214203 641.99133 641.99133
-48.303192 -115.99654 563.91333 563.91333
-45.218044 -34.471436 589.49103 589.49103
-2.5477371 -156.73904 567.69452 567.69452
22.075607 -151.57253 567.21753 567.21753
-52.885288 -18.584351 626.02838 626.02838
-55.827747 -145.60561 580.69348 580.69348
68.648666 -81.324837 579.72485 579.72485
-71.474083 -36.528137 620.62689 620.62689
0.75566864 -51.208466 562.71417 562.71417
-98.106064 -86.783279 635.83954 635.83954
-82.785736 -101.57821 593.92834 593.92834
-70.161919 -119.3299 581.41675 581.41675
-67.980453 -121.92404 580.01434 580.01434
31.25264 -102.91973 555.05396 555.05396
46.928177 -124.16625 565.06628 565.06628
-46.61171 -89.162743 562.19397 562.19397
63.023636 -82.227798 574.42108 574.42108
-15.508926 -123.02244 553.93005 553.93005
-23.459877 -147.74573 565.32428 565.32428
-18.761414 -116.83981 553.22998 553.22998
4.1498795 -80.188942 552.06995 552.06995
67.869064 -128.55716 582.33704 582.33704
-44.023861 -169.87759 593.61719 593.61719
-86.427414 -134.12521 613.04364 613.04364
-58.544617 -75.525871 572.7113 572.7113
-32.469536 -58.295761 565.10901 565.10901
-83.351494 -54.031158 619.35046 619.35046
35.549164 -179.61031 601.02594 601.02594
-3.9557037 -90.808632 550.50189 550.50189
84.076416 -135.52634 609.14618 609.14618
-28.336235 -136.25116 561.21423 561.21423
-52.743931 -141.52687 575.88123 575.88123
-42.911743 -115.00942 560.93091 560.93091
31.180862 -166.27834 581.91962 581.91962
-46.313984 -152.41254 578.53015 578.53015
-53.2663 -82.063339 567.28979 567.28979
-26.489769 -15.794128 603.01422 603.01422
-18.16568 -118.15089 553.35345 553.35345
45.069061 -48.224274 577.28101 577.28101
34.803619 -131.66841 561.7627 561.7627
5.3732758 -135.0809 556.50958 556.50958
-23.686234 -112.53884 553.6582 553.6582
0.45518494 -150.53851 563.71179 563.71179
41.854263 -118.74144 561.13507 561.13507
-5.9814606 -121.19257 552.45465 552.45465
17.769836 -186.84708 603.72021 603.72021
17.451561 -178.54366 590.617 590.617
-28.360825 -170.19119 584.66351 584.66351
-13.550415 -105.83612 551.09436 551.09436
-28.191231 -111.90746 554.79773 554.79773
-28.403259 -54.41716 565.64685 565.64685
10.651382 -193.25708 615.50848 615.50848
22.634926 -56.860596 562.66931 562.66931
-52.583752 -141.93636 575.99805 575.99805
11.540924 -138.73016 558.52991 558.52991
-5.6625748 -18.33548 592.56445 592.56445
-2.3881302 -26.178772 582.58545 582.58545
-39.050095 -186.45605 618.37024 618.37024
-68.464485 -149.13907 596.16724 596.16724
-54.403713 -55.699112 578.74225 578.74225
3.4588547 -52.499832 562.06952 562.06952
-46.56633 -163.56415 588.42749 588.42749
-40.26252 -149.46982 572.98267 572.98267
30.755966 -94.760216 554.99152 554.99152
58.820953 -91.666779 569.55963 569.55963
-74.602486 -93.680832 583.70868 583.70868
28.661621 -82.7827 555.75525 555.75525
-23.886398 -172.87029 585.81775 585.81775
-5.148819 -51.252945 562.83801 562.83801
30.194214 -112.80698 555.53156 555.53156
42.139359 -123.72032 562.4693 562.4693
-9.1586227 -133.68219 556.28967 556.28967
-83.530258 -107.60985 595.55017 595.55017
-2.1739883 -154.36728 566.09845 566.09845
-9.9395981 -1.947937 633.05902 633.05902
58.153534 -121.53368 571.54956 571.54956
28.443359 -177.27693 593.26154 593.26154
10.093185 -48.914001 564.62817 564.62817
-10.026772 -28.00766 581.32275 581.32275
86.893082 -110.19081 601.56714 601.56714
-18.562057 -194.96066 624.74286 624.74286
-34.983795 -90.528015 556.79907 556.79907
20.430992 -137.10434 559.41388 559.41388
-1.6173706 -107.01591 550.25952 550.25952
-13.104591 -90.318665 551.33624 551.33624
-17.095146 -38.493668 573.02777 573.02777
62.139313 -23.796371 631.78699 631.78699
30.493744 -103.14823 554.81482 554.81482
-90.840988 -118.61195 612.56323 612.56323
11.089775 -176.42572 586.46948 586.46948
-81.74498 -157.52402 647.0426 647.0426
7.5112 -32.673767 576.44214 576.44214
20.020081 -160.62076 573.0304 573.0304
-2.0295944 -13.025146 600.69226 600.69226
62.191635 -31.954483 611.24426 611.24426
-32.227173 -84.133507 556.67444 556.67444
45.73764 -175.40485 602.86005 602.86005
41.850266 -29.158859 593.16614 593.16614
-49.940483 -46.398224 581.93536 581.93536
-37.500835 -104.89949 557.42743 557.42743
-55.01078 -61.30455 575.99677 575.99677
8.0418091 -144.69701 560.90729 560.90729
-47.455238 -121.34464 564.60443 564.60443
1.8412476 -54.012756 561.22058 561.22058
1.7332916 -113.27628 550.90039 550.90039
-28.996071 -30.707962 583.98608 583.98608
-69.07338 -97.287071 577.73999 577.73999
-6.4396286 -9.2128601 608.57263 608.57263
59.954575 -126.78965 574.58276 574.58276
15.545692 -169.56963 579.86871 579.86871
-26.828239 -157.90161 573.00879 573.00879
29.463058 -31.048233 583.83667 583.83667
-4.7125702 -43.724457 567.47211 567.47211
-11.515167 -165.98587 575.74866 575.74866
12.279152 -92.697037 551.02582 551.02582
11.323845 -133.91476 556.61072 556.61072
55.768326 -39.799744 592.8526 592.8526
-6.4605103 -137.53783 557.53827 557.53827
38.402924 -160.44334 580.2016 580.2016
41.925171 -90.212723 559.74207 559.74207
-37.398659 -67.533478 563.125 563.125
-13.865723 -41.679794 569.95941 569.95941
-66.435059 -38.448837 607.59912 607.59912
-70.762329 -153.32146 603.63715 603.63715
-14.176025 -139.08698 559.05359 559.05359
-55.161621 -54.919113 579.82233 579.82233
-1.9726791 -158.43164 568.8714 568.8714
-40.217834 -127.29629 562.60754 562.60754
46.178726 -161.25526 585.84924 585.84924
-47.537487 -110.32221 562.62927 562.62927
11.853386 -68.879227 555.70795 555.70795
89.039719 -77.809273 610.25708 610.25708
-25.678238 -34.60965 578.83307 578.83307
50.766602 -41.158096 587.06842 587.06842
56.145569 -130.16559 572.94342 572.94342
-30.783226 -134.01364 561.14355 561.14355
-77.311363 -148.79767 609.48163 609.48163
2.9316635 -15.335617 596.86481 596.86481
-58.684464 -79.526314 571.66125 571.66125
6.5034714 -39.147064 570.91382 570.91382
-40.419571 -146.50797 571.2392 571.2392
-21.226311 -111.24536 552.92792 552.92792
47.394287 -157.8347 583.60022 583.60022
-64.681923 -111.47991 574.60461 574.60461
42.972733 -107.85483 560.04645 560.04645
57.362823 -163.2934 598.00525 598.00525
-60.410412 -69.285645 576.46625 576.46625
-27.178619 -90.901329 554.19531 554.19531
-32.657692 -32.892578 583.44122 583.44122
-44.053143 -66.588974 566.67517 566.67517
23.945831 -124.90363 556.15753 556.15753
-52.978004 -172.93143 606.70636 606.70636
4.8175659 -69.673981 554.83105 554.83105
-51.31768 -164.36092 593.21826 593.21826
-25.119217 -92.39534 553.50549 553.50549
53.029739 -29.143448 603.44684 603.44684
-87.45771 -70.066879 611.85345 611.85345
72.826324 -97.783684 581.5061 581.5061
8.7845764 -16.526886 595.63947 595.63947
-69.028526 -57.903976 591.15283 591.15283
13.399719 -44.539948 567.87433 567.87433
-3.5744476 -139.55495 558.2251 558.2251
-48.116512 -23.095901 607.922 607.922
62.640839 -161.79654 602.48883 602.48883
-90.009277 -109.23515 607.42017 607.42017
-9.8257751 -101.45635 550.49457 550.49457
-13.854668 -83.822823 552.29462 552.29462
84.7798 -141.0686 616.44775 616.44775
79.297165 -60.979919 603.20905 603.20905
-47.478081 -116.0621 563.46771 563.46771
-57.932465 -87.717293 569.42108 569.42108
-20.640015 -70.34996 556.75372 556.75372
-23.823364 -162.0313 575.27002 575.27002
75.713745 -78.959061 588.15576 588.15576
85.427567 -120.74223 602.33563 602.33563
83.491226 -142.98618 615.62842 615.62842
48.822128 -101.42971 562.73975 562.73975
48.956985 -169.43611 597.25684 597.25684
-84.117805 -58.981125 614.763 614.763
71.709244 -157.87158 611.15845 611.15845
6.7391052 -32.25705 576.75061 576.75061
-31.150887 -73.190544 558.836 558.836
48.185135 -36.874252 589.22717 589.22717
27.101685 -69.120102 558.8302 558.8302
15.614143 -5.9649811 619.77399 619.77399
-58.882767 -64.141434 577.56396 577.56396
57.223816 -33.65831 601.78992 601.78992
55.782501 -68.308517 573.29303 573.29303
-20.928368 -17.127914 598.09412 598.09412
75.72261 -143.67795 601.43744 601.43744
14.810646 -94.473663 551.25739 551.25739
-32.707253 -113.0169 556.40088 556.40088
-51.37862 -24.597961 609.07605 609.07605
-7.6213684 -52.89119 562.12122 562.12122
-73.113373 -79.709267 584.86383 584.86383
-41.163898 -32.188202 589.11407 589.11407
-17.754868 -39.152496 572.65436 572.65436
-10.888634 -177.65543 587.94299 587.94299
-38.982285 -135.80023 565.15472 565.15472
-48.668854 -134.81458 569.87952 569.87952
73.585464 -67.071838 590.83148 590.83148
-66.561478 -39.406357 606.4342 606.4342
-48.852974 -131.60635 568.6709 568.6709
-40.512051 -86.120728 559.6333 559.6333
-9.0717087 -57.829239 559.78174 559.78174
46.636581 -49.855698 577.12628 577.12628
24.101891 -12.002625 609.06641 609.06641
-61.119656 -41.492279 596.69678 596.69678
27.270088 -96.850586 553.84167 553.84167
-65.240021 -142.90419 587.52625 587.52625
42.829926 -108.7109 560.05713 560.05713
-90.901192 -60.065277 638.07562 638.07562
92.541382 -135.43576 636.56873 636.56873
-37.955601 -148.77405 571.38403 571.38403
-18.926537 -57.74118 561.36603 561.36603
-0.59667206 -69.167038 554.8739 554.8739
35.782379 -9.1742249 628.3136 628.3136
54.879654 -69.47084 572.17847 572.17847
59.713562 -76.474312 573.31342 573.31342
3.4311523 -51.217499 562.77332 562.77332
40.922058 -47.955795 575.05481 575.05481
81.098785 -62.445313 605.13763 605.13763
39.883484 -184.55368 614.50378 614.50378
30.614334 -165.10185 580.54132 580.54132
-48.988342 -56.156937 574.64795 574.64795
-81.77491 -121.48917 596.60449 596.60449
-92.897423 -108.75253 614.03528 614.03528
-10.761963 -126.09916 554.06763 554.06763
-30.502228 -136.55962 562.0625 562.0625
-34.636894 -88.200615 556.93518 556.93518
28.189209 -23.778076 591.72833 591.72833
-89.974304 -81.844269 610.31378 610.31378
8.2859039 -23.691101 585.90399 585.90399
74.241226 -146.88467 602.14532 602.14532
63.182571 -50.329071 590.49573 590.49573
-24.912109 -114.30041 554.21436 554.21436
-45.892681 -22.448441 606.64545 606.64545
-12.427246 -192.95921 615.29913 615.29913
-43.447418 -167.29033 590.13068 590.13068
54.311798 -179.67119 623.49097 623.49097
