# .PCD v0.7 - Point Cloud Data file format
VERSION 0.7
FIELDS x y z intensity
SIZE 4 4 4 4
TYPE F F F F
COUNT 1 1 1 1
WIDTH 1179
HEIGHT 1
VIEWPOINT 0 0 0 1 0 0 0
POINTS 1179
DATA ascii
87.910995 -7.3559265 1064.3499 1064.3499
43.128506 -37.33017 1046.726 1046.726
58.367359 -140.05118 1018.3751 1018.3751
23.162874 -44.144562 1068.7554 1068.7554
150.83984 -121.14383 1016.524 1016.524
91.718925 -141.37392 1009.3379 1009.3379
42.301147 -49.358215 1035.9199 1035.9199
117.5403 -120.09633 1003.6233 1003.6233
45.010479 -41.492249 1040.3929 1040.3929
106.4045 -3.8331299 1073.337 1073.337
38.138943 -177.89484 1089.7236 1089.7236
132.66299 -192.28542 1079.5909 1079.5909
156.80748 -101.63454 1017.7186 1017.7186
57.976818 -10.431488 1085.4558 1085.4558
160.89848 -121.25744 1023.5834 1023.5834
45.052212 -178.91835 1072.5658 1072.5658
39.536877 -132.89163 1027.4579 1027.4579
140.47408 -137.12689 1016.433 1016.433
8.5671806 -89.762749 1060.8179 1060.8179
47.148037 -92.426979 1015.4464 1015.4464
102.80234 -134.0838 1006.0295 1006.0295
23.54413 -75.988449 1040.1841 1040.1841
7.5245461 -133.02505 1081.0887 1081.0887
160.82211 -138.992 1030.8604 1030.8604
62.763733 -65.199875 1013.9627 1013.9627
149.72859 -110.23917 1013.8477 1013.8477
124.2787 -184.14314 1051.725 1051.725
56.716347 -28.726959 1044.8032 1044.8032
16.183565 -103.96856 1045.6028 1045.6028
190.83138 -81.078697 1062.6952 1062.6952
69.134171 -147.38425 1017.5256 1017.5256
129.68463 -23.268448 1043.1573 1043.1573
191.11691 -110.9962 1060.2911 1060.2911
22.604137 -77.302513 1040.8839 1040.8839
104.99123 -22.40155 1037.1226 1037.1226
122.35391 -195.57777 1080.89 1080.89
127.07664 -30.017929 1033.8988 1033.8988
63.494301 -138.80211 1015.373 1015.373
73.477013 -50.91217 1017.0126 1017.0126
135.60416 -87.524391 1007.3895 1007.3895
64.000397 -72.582748 1010.8242 1010.8242
2.6745331 -114.06722 1081.8378 1081.8378
81.938019 -66.934357 1007.3694 1007.3694
198.38681 -116.47433 1093.0264 1093.0264
26.571634 -150.44713 1054.5758 1054.5758
195.71498 -93.939781 1071.6819 1071.6819
138.64151 -25.060852 1046.2324 1046.2324
80.30687 -101.92159 1001.9771 1001.9771
14.183074 -120.51998 1052.9427 1052.9427
79.838814 -180.44455 1044.1233 1044.1233
136.29677 -10.632767 1073.6174 1073.6174
97.795097 -49.959152 1013.4492 1013.4492
139.61674 -89.327469 1008.8046 1008.8046
8.1357622 -80.834618 1065.4508 1065.4508
190.73795 -89.38279 1059.3318 1059.3318
91.745544 -197.08609 1077.5021 1077.5021
45.933498 -149.64322 1032.0856 1032.0856
40.179291 -24.367859 1073.5187 1073.5187
121.43599 -66.178818 1008.3669 1008.3669
113.31198 -84.010658 1002.1883 1002.1883
110.02531 -70.308411 1005.0374 1005.0374
121.44621 -117.95664 1003.9916 1003.9916
129.47755 -126.59982 1008.2202 1008.2202
138.09161 -192.19186 1092.9509 1092.9509
26.251444 -72.156754 1038.4703 1038.4703
23.655962 -59.499191 1049.6882 1049.6882
46.402695 -143.94357 1027.9147 1027.9147
134.72968 -10.637421 1071.5715 1071.5715
62.22406 -84.485687 1008.7186 1008.7186
38.527378 -154.64276 1043.1205 1043.1205
114.95219 -84.31041 1002.3769 1002.3769
75.42395 -46.557022 1019.1306 1019.1306
103.27072 -117.72833 1001.6384 1001.6384
71.42627 -180.11577 1047.4166 1047.4166
60.187798 -152.39676 1024.7035 1024.7035
49.249985 -37.779709 1040.3923 1040.3923
160.49225 -73.231491 1025.0057 1025.0057
138.89854 -75.585922 1011.1695 1011.1695
99.217979 -190.55528 1057.5839 1057.5839
188.86537 -106.94882 1054.6716 1054.6716
131.93134 -189.22693 1068.0791 1068.0791
116.95773 -147.39578 1013.5936 1013.5936
130.31975 -146.09586 1016.598 1016.598
161.05273 -98.982559 1020.807 1020.807
105.12378 -31.747986 1027.0931 1027.0931
147.5208 -157.24016 1033.1768 1033.1768
75.740036 -49.171616 1017.3687 1017.3687
162.56401 -46.269363 1043.4424 1043.4424
174.15681 -101.0017 1032.9197 1032.9197
133.40385 -86.471069 1006.72 1006.72
29.969471 -32.590454 1076.5122 1076.5122
55.665588 -155.99297 1030.0054 1030.0054
142.06192 -21.770966 1054.0542 1054.0542
73.011612 -82.764137 1005.2659 1005.2659
77.067154 -81.192863 1004.4993 1004.4993
62.109375 -176.14856 1047.4102 1047.4102
37.880569 -75.112511 1025.6913 1025.6913
192.79182 -121.08457 1069.2572 1069.2572
4.2193432 -125.47761 1086.6974 1086.6974
114.20164 -51.022171 1013.9797 1013.9797
98.59861 -61.824371 1007.5844 1007.5844
109.73177 -164.06969 1023.8398 1023.8398
101.39624 -6.311554 1065.064 1065.064
36.337227 -115.25761 1024.4073 1024.4073
66.61084 -192.37802 1081.2526 1081.2526
158.1026 -97.287987 1018.6567 1018.6567
130.95634 -148.21057 1018.04 1018.04
159.33394 -97.015831 1019.5601 1019.5601
77.588402 -116.37093 1003.9286 1003.9286
126.80465 -139.80017 1012.2648 1012.2648
112.57925 -18.962723 1042.7748 1042.7748
159.64804 -152.8793 1039.6188 1039.6188
33.732132 -135.88269 1034.2656 1034.2656
174.03648 -65.249512 1042.4587 1042.4587
143.33139 -108.06699 1010.2374 1010.2374
25.468964 -93.398354 1033.6559 1033.6559
77.065506 -103.90049 1002.7437 1002.7437
106.25721 -36.057968 1023.3693 1023.3693
55.821888 -116.57494 1011.8322 1011.8322
124.95096 -143.42415 1013.4448 1013.4448
133.0256 -125.22837 1009.0449 1009.0449
35.47908 -164.66814 1059.3173 1059.3173
67.872498 -155.02286 1022.9266 1022.9266
145.37378 -98.465408 1010.8997 1010.8997
172.37225 -98.105072 1031.017 1031.017
125.59532 -149.09671 1016.727 1016.727
145.59581 -133.13557 1017.3982 1017.3982
174.63982 -115.01075 1035.165 1035.165
130.03914 -159.202 1025.2151 1025.2151
132.41896 -104.9343 1005.5295 1005.5295
73.037979 -8.4264984 1070.2117 1070.2117
146.52118 -25.061264 1052.8835 1052.8835
118.50739 -136.90977 1008.9223 1008.9223
4.4980817 -70.975479 1093.9204 1093.9204
124.97678 -67.284149 1008.8636 1008.8636
169.71048 -154.64444 1053.5841 1053.5841
154.41301 -73.209419 1020.4922 1020.4922
3.3534071 -108.22691 1075.674 1075.674
147.97028 -78.959717 1014.8169 1014.8169
137.1633 -112.20301 1007.9675 1007.9675
103.90779 -166.19423 1025.1465 1025.1465
28.529591 -155.97147 1058.0575 1058.0575
184.40593 -121.91908 1051.0593 1051.0593
105.05229 -30.852081 1027.9373 1027.9373
115.73401 -132.84161 1006.8664 1006.8664
186.08766 -82.184196 1052.3396 1052.3396
132.03691 -53.122406 1017.6827 1017.6827
161.28143 -81.560432 1023.1588 1023.1588
143.88707 -140.32587 1019.7021 1019.7021
139.06958 -117.46762 1009.6205 1009.6205
70.23172 -74.587837 1007.9779 1007.9779
100.52293 -195.61812 1070.7271 1070.7271
77.745369 -53.32692 1014.4059 1014.4059
127.40842 -5.4879303 1082.2167 1082.2167
67.91909 -120.40617 1007.51 1007.51
5.9084501 -68.391068 1087.8486 1087.8486
110.54395 -67.241806 1006.1079 1006.1079
78.642479 -111.81855 1003.0248 1003.0248
169.18456 -80.618538 1030.4453 1030.4453
122.43784 -107.96272 1002.8757 1002.8757
147.83409 -115.68184 1013.5941 1013.5941
113.40745 -144.34238 1011.3773 1011.3773
68.686607 -41.319092 1025.3273 1025.3273
83.023766 -85.959709 1002.4568 1002.4568
23.822632 -40.741821 1073.8184 1073.8184
56.875641 -67.388046 1015.8766 1015.8766
128.48274 -180.48874 1047.9395 1047.9395
146.81244 -59.067657 1021.6857 1021.6857
154.22597 -52.778534 1030.5042 1030.5042
120.67913 -138.92644 1010.2386 1010.2386
187.52466 -146.33536 1086.1267 1086.1267
173.45683 -54.283127 1049.8596 1049.8596
15.152538 -152.18364 1091.1809 1091.1809
196.00386 -78.021622 1082.6735 1082.6735
96.866844 -142.6618 1009.6111 1009.6111
131.44753 -20.187134 1048.6097 1048.6097
69.229164 -193.47418 1082.2311 1082.2311
121.61363 -80.302513 1004.3712 1004.3712
21.819792 -41.602951 1078.145 1078.145
36.693829 -136.0928 1031.519 1031.519
27.752083 -73.296165 1036.2258 1036.2258
167.30736 -61.592194 1036.7975 1036.7975
71.629913 -183.04556 1052.0565 1052.0565
14.001153 -138.66432 1066.6943 1066.6943
54.693604 -121.30109 1013.4344 1013.4344
154.41516 -24.269073 1063.8916 1063.8916
72.314011 -146.44676 1015.8799 1015.8799
147.91161 -161.91772 1037.7853 1037.7853
31.645336 -161.24545 1060.2931 1060.2931
182.33943 -72.337914 1050.4518 1050.4518
46.74535 -52.151733 1030.1825 1030.1825
95.964684 -41.181976 1019.2278 1019.2278
195.77635 -84.326698 1075.8911 1075.8911
60.072006 -190.42712 1084.8774 1084.8774
71.96714 -39.552063 1025.4332 1025.4332
41.861065 -98.55661 1018.6503 1018.6503
60.623695 -149.76874 1022.7175 1022.7175
102.12877 -86.082146 1000.9962 1000.9962
36.988094 -63.059402 1031.7 1031.7
103.41346 -102.20161 1000.0825 1000.0825
43.635757 -136.76012 1026.0286 1026.0286
140.10826 -107.20644 1008.6797 1008.6797
68.964119 -114.59006 1006.0643 1006.0643
102.68431 -8.5542603 1059.6208 1059.6208
64.574699 -84.613625 1007.7595 1007.7595
89.991257 -72.210503 1004.4617 1004.4617
91.677734 -37.67366 1022.2429 1022.2429
171.34158 -50.634567 1050.2664 1050.2664
91.847458 -33.023193 1026.1919 1026.1919
59.883827 -181.77078 1058.7177 1058.7177
156.11826 -112.25768 1018.1435 1018.1435
21.5839 -88.866493 1038.9512 1038.9512
46.808044 -70.693481 1020.5535 1020.5535
174.05582 -52.513641 1052.4523 1052.4523
53.715057 -184.86078 1074.3806 1074.3806
149.12891 -131.65564 1018.8564 1018.8564
95.816498 -89.251801 1000.6674 1000.6674
33.677868 -124.15956 1029.1643 1029.1643
152.91672 -134.75092 1022.5907 1022.5907
191.63283 -86.297585 1062.3746 1062.3746
125.74942 -16.373749 1051.5891 1051.5891
85.083595 -91.807678 1001.4587 1001.4587
89.767479 -165.3391 1024.9927 1024.9927
62.897675 -176.3649 1047.1624 1047.1624
124.80186 -21.966415 1042.5924 1042.5924
132.34354 -68.712799 1010.6971 1010.6971
107.5477 -130.84236 1005.175 1005.175
77.229057 -73.520187 1006.2968 1006.2968
135.85213 -78.310822 1009.2024 1009.2024
84.134903 -76.642838 1004.0691 1004.0691
139.88034 -10.897186 1078.3148 1078.3148
124.03747 -95.223633 1003.0496 1003.0496
121.93458 -131.5936 1007.6923 1007.6923
80.590912 -122.49724 1004.5162 1004.5162
87.659004 -130.73401 1005.6437 1005.6437
76.049141 -169.00769 1031.7043 1031.7043
164.81625 -45.576065 1046.7375 1046.7375
131.71902 -92.545631 1005.4572 1005.4572
144.8961 -16.891251 1067.1781 1067.1781
93.304207 -26.775391 1032.226 1032.226
138.98787 -74.031509 1011.6508 1011.6508
140.364 -163.35797 1033.9961 1033.9961
46.353329 -86.86396 1016.6365 1016.6365
41.679512 -58.180756 1030.359 1030.359
147.01181 -24.825653 1053.7538 1053.7538
117.60526 -153.38863 1017.2975 1017.2975
99.375031 -39.16275 1020.6373 1020.6373
47.769936 -171.21803 1053.0957 1053.0957
121.29372 -119.57005 1004.2734 1004.2734
118.13841 -4.8816376 1075.0302 1075.0302
148.60764 -133.2296 1019.1725 1019.1725
126.61799 -119.12029 1005.523 1005.523
52.824871 -113.34334 1012.8423 1012.8423
24.792351 -65.958542 1043.5643 1043.5643
159.54311 -136.25809 1028.3064 1028.3064
117.84694 -151.76305 1016.3216 1016.3216
70.644699 -157.46487 1023.606 1023.606
75.559799 -103.31144 1003.0892 1003.0892
89.529396 -147.30449 1012.5206 1012.5206
145.70103 -54.579941 1023.525 1023.525
149.7906 -85.944603 1014.4235 1014.4235
140.81764 -17.841324 1060.2021 1060.2021
80.97303 -193.86105 1071.2236 1071.2236
40.321598 -177.27921 1078.4034 1078.4034
148.09418 -147.05054 1026.0189 1026.0189
151.71422 -113.12666 1015.4226 1015.4226
177.9207 -74.276184 1042.8453 1042.8453
189.74739 -112.34328 1057.6556 1057.6556
177.72079 -103.16516 1037.1553 1037.1553
74.57991 -20.588699 1044.7943 1044.7943
99.53524 -107.04149 1000.2493 1000.2493
45.279438 -100.24477 1016.3005 1016.3005
112.36447 -91.117683 1001.1656 1001.1656
107.45366 -17.958694 1043.3108 1043.3108
21.856295 -79.067139 1041.2175 1041.2175
169.35239 -96.903526 1028.0232 1028.0232
122.01992 -164.11316 1026.4839 1026.4839
116.57363 -94.640411 1001.5287 1001.5287
110.84451 -2.1192017 1082.6292 1082.6292
80.182808 -196.33235 1081.907 1081.907
38.662285 -70.494888 1026.7393 1026.7393
153.89859 -55.674759 1028.3745 1028.3745
20.323641 -144.34381 1058.9475 1058.9475
65.517418 -40.43515 1027.4536 1027.4536
65.812302 -16.422836 1057.0342 1057.0342
130.40656 -119.53366 1006.759 1006.759
144.18185 -132.85062 1016.5206 1016.5206
26.052416 -95.850792 1032.8097 1032.8097
54.650543 -145.81044 1023.5485 1023.5485
120.09636 -94.246567 1002.2092 1002.2092
108.77344 -181.58058 1042.8368 1042.8368
62.254787 -149.19301 1021.544 1021.544
59.646629 -92.894531 1008.7798 1008.7798
15.707501 -114.37901 1048.1539 1048.1539
110.13905 -98.161682 1000.5323 1000.5323
35.140129 -90.086433 1024.5353 1024.5353
108.79012 -120.56747 1002.5335 1002.5335
92.190536 -173.11107 1032.2225 1032.2225
24.587233 -61.528992 1046.775 1046.775
148.58115 -156.0732 1032.9502 1032.9502
52.459961 -66.450272 1018.6713 1018.6713
49.540321 -168.70486 1047.7175 1047.7175
40.399685 -124.6732 1023.5864 1023.5864
84.338226 -7.1495361 1066.3325 1066.3325
197.2876 -115.67228 1082.9852 1082.9852
149.74506 -55.750427 1025.385 1025.385
80.24794 -42.33075 1020.7276 1020.7276
168.35725 -66.001785 1035.4136 1035.4136
97.376511 -134.68752 1006.2455 1006.2455
90.683678 -45.156494 1016.9013 1016.9013
49.161686 -44.80191 1033.9043 1033.9043
100.48709 -45.810928 1015.9565 1015.9565
170.12277 -67.772369 1036.4061 1036.4061
68.43055 -47.45256 1020.9928 1020.9928
136.83746 -190.10483 1077.1063 1077.1063
29.770475 -53.092545 1046.4509 1046.4509
118.79015 -107.56234 1002.0728 1002.0728
138.33948 -67.285294 1013.6297 1013.6297
192.84807 -133.47964 1083.9268 1083.9268
83.834267 -112.52323 1002.1132 1002.1132
40.146847 -62.850113 1029.0248 1029.0248
79.799042 -29.382446 1032.1393 1032.1393
4.2875257 -86.023506 1074.6272 1074.6272
45.160652 -46.874954 1035.4215 1035.4215
106.90558 -182.52344 1043.9447 1043.9447
65.882835 -83.778465 1007.4102 1007.4102
112.54033 -129.6828 1005.3339 1005.3339
123.2615 -31.704987 1030.7562 1030.7562
151.53741 -119.22404 1016.4875 1016.4875
107.63155 -195.38016 1070.9417 1070.9417
187.67004 -144.9924 1082.981 1082.981
132.79361 -36.495193 1030.0592 1030.0592
113.96336 -21.29776 1039.9086 1039.9086
161.89215 -107.70422 1021.8335 1021.8335
108.72962 -32.733292 1026.5222 1026.5222
103.34327 -93.777832 1000.2498 1000.2498
191.62657 -105.91945 1060.3827 1060.3827
9.081687 -136.46484 1079.8959 1079.8959
98.806351 -15.543503 1046.468 1046.468
129.86218 -90.278557 1005.0593 1005.0593
17.355288 -107.68991 1044.2262 1044.2262
127.13947 -16.274048 1052.5299 1052.5299
68.707222 -191.70239 1075.2728 1075.2728
109.38715 -42.234558 1018.9134 1018.9134
175.98615 -128.55807 1041.6001 1041.6001
120.11246 -10.86058 1059.384 1059.384
98.245224 -168.69336 1027.3491 1027.3491
112.95955 -101.0671 1000.8491 1000.8491
110.64186 -193.78836 1066.9774 1066.9774
65.209862 -57.061951 1016.6575 1016.6575
104.08704 -17.093857 1044.2338 1044.2338
13.099648 -86.441055 1052.4135 1052.4135
139.46945 -138.99185 1016.8027 1016.8027
115.84627 -98.379791 1001.2768 1001.2768
4.8494568 -110.95411 1071.2532 1071.2532
106.52747 -158.24983 1018.9793 1018.9793
21.977888 -119.14856 1040.4526 1040.4526
5.5851049 -88.490654 1069.1234 1069.1234
55.139587 -86.752441 1011.6143 1011.6143
136.86037 -13.728363 1065.3804 1065.3804
162.83681 -168.59575 1063.3099 1063.3099
105.25752 -40.030457 1020.1501 1020.1501
112.02664 -2.5691223 1080.9584 1080.9584
95.9412 -52.552612 1012.0667 1012.0667
95.174751 -95.143982 1000.2346 1000.2346
46.396061 -27.790039 1056.2697 1056.2697
66.434067 -174.7271 1042.6486 1042.6486
143.34349 -47.459671 1026.7821 1026.7821
160.79062 -94.223831 1020.8095 1020.8095
57.026436 -182.10062 1062.4133 1062.4133
113.27494 -55.263031 1011.5558 1011.5558
41.49818 -49.102524 1036.8574 1036.8574
95.103134 -134.83572 1006.3918 1006.3918
60.725994 -172.09332 1042.9027 1042.9027
164.21451 -156.75085 1048.4652 1048.4652
45.958183 -37.74498 1043.3979 1043.3979
6.9653859 -84.985245 1066.5468 1066.5468
18.765265 -59.053589 1058.4752 1058.4752
82.545944 -173.72581 1034.7324 1034.7324
91.895172 -30.668762 1028.3936 1028.3936
18.790255 -91.100311 1042.3304 1042.3304
35.422424 -49.944687 1042.3441 1042.3441
154.68851 -159.56276 1041.166 1041.166
66.431442 -88.881775 1006.4611 1006.4611
118.77596 -179.54539 1042.3806 1042.3806
83.706352 -198.56474 1095.5833 1095.5833
24.789333 -71.487503 1040.5829 1040.5829
46.674217 -137.03714 1023.9434 1023.9434
180.00339 -55.119934 1060.1849 1060.1849
144.76337 -104.67452 1010.7006 1010.7006
118.10328 -174.17993 1035.4275 1035.4275
122.62578 -141.51631 1011.8838 1011.8838
132.69618 -17.188782 1054.4669 1054.4669
123.87724 -9.7661133 1064.1151 1064.1151
143.97403 -121.89085 1012.8962 1012.8962
160.90459 -115.02224 1022.1221 1022.1221
62.656124 -150.05489 1021.8979 1021.8979
38.918144 -23.163239 1080.892 1080.892
83.095901 -178.82732 1040.835 1040.835
31.246632 -32.422836 1073.4237 1073.4237
42.319729 -58.449692 1029.6682 1029.6682
175.80095 -89.518532 1035.6233 1035.6233
199.19621 -112.64732 1099.6047 1099.6047
124.7368 -51.682419 1016.0149 1016.0149
138.94998 -15.468765 1063.4299 1063.4299
103.99168 -40.943222 1019.4 1019.4
145.12695 -126.19541 1014.6926 1014.6926
60.3778 -191.32181 1090.4917 1090.4917
89.969543 -50.721573 1013.5649 1013.5649
26.481342 -49.670242 1054.5916 1054.5916
174.99353 -61.278397 1046.366 1046.366
94.870361 -124.19427 1003.1066 1003.1066
155.52158 -128.18883 1021.752 1021.752
97.958397 -170.48026 1029.089 1029.089
168.5224 -163.97176 1065.182 1065.182
40.655895 -152.07942 1038.6322 1038.6322
49.366684 -60.018692 1023.5947 1023.5947
196.10429 -119.63712 1080.5488 1080.5488
180.60907 -54.090805 1062.6567 1062.6567
171.56532 -92.225075 1030.5885 1030.5885
93.491463 -23.398361 1036.0482 1036.0482
32.463699 -113.86519 1027.5665 1027.5665
46.993851 -153.70386 1034.3781 1034.3781
83.49987 -70.582993 1005.8597 1005.8597
73.964676 -131.38171 1008.6909 1008.6909
80.63942 -46.397934 1017.8295 1017.8295
32.471519 -130.03223 1032.6355 1032.6355
135.51762 -7.5233765 1086.3408 1086.3408
165.20715 -38.299942 1055.9418 1055.9418
55.261375 -107.12142 1010.8499 1010.8499
67.181747 -162.4882 1029.1609 1029.1609
78.661819 -81.116043 1004.1455 1004.1455
39.644066 -101.2608 1020.2781 1020.2781
46.808331 -60.657944 1025.0144 1025.0144
74.493576 -41.21875 1023.2264 1023.2264
76.43856 -40.749985 1022.9656 1022.9656
81.687912 -123.41281 1004.5196 1004.5196
39.289074 -138.84258 1030.6787 1030.6787
48.031757 -86.356674 1015.6605 1015.6605
19.550896 -156.56747 1081.8875 1081.8875
116.86282 -12.190979 1055.2203 1055.2203
57.052505 -83.541382 1011.2046 1011.2046
146.80733 -45.901596 1030.1256 1030.1256
122.56069 -57.099655 1012.5324 1012.5324
65.398224 -143.19308 1016.7109 1016.7109
110.67245 -158.11417 1019.3226 1019.3226
97.100029 -122.27774 1002.5562 1002.5562
39.470257 -49.996048 1038.0665 1038.0665
141.56973 -67.045425 1015.23 1015.23
38.43528 -136.65723 1030.243 1030.243
174.62654 -114.62986 1035.0627 1035.0627
139.34239 -53.873474 1020.4731 1020.4731
68.437889 -7.9115448 1077.1188 1077.1188
86.821053 -53.193146 1012.619 1012.619
72.641312 -108.33575 1004.1771 1004.1771
33.982708 -106.90126 1025.2063 1025.2063
54.75951 -122.26788 1013.6436 1013.6436
86.319008 -105.06528 1001.0698 1001.0698
1.1034145 -114.32648 1096.2294 1096.2294
157.88496 -88.164246 1019.3201 1019.3201
149.52335 -39.879318 1037.2869 1037.2869
109.69261 -30.311935 1028.9392 1028.9392
87.089333 -152.0766 1015.6119 1015.6119
47.737606 -42.078217 1037.4403 1037.4403
184.02049 -128.69882 1053.9899 1053.9899
4.3221464 -106.47867 1071.649 1071.649
149.49942 -123.43401 1016.3301 1016.3301
183.77525 -143.87134 1067.4883 1067.4883
55.475319 -110.73929 1011.1056 1011.1056
45.583729 -61.373688 1025.5226 1025.5226
55.896515 -130.51364 1015.5974 1015.5974
36.221077 -88.719894 1023.8094 1023.8094
7.8603745 -107.37315 1061.8434 1061.8434
0.5571664 -106.96296 1092.0854 1092.0854
114.19902 -181.52792 1043.861 1043.861
105.90677 -91.685104 1000.5215 1000.5215
131.33932 -17.960938 1052.1729 1052.1729
166.69035 -108.34465 1025.9543 1025.9543
187.64433 -145.75362 1084.9974 1084.9974
90.876968 -25.598282 1033.8097 1033.8097
104.21204 -72.975052 1003.8132 1003.8132
28.915831 -51.883057 1048.699 1048.699
147.6833 -155.03819 1031.4646 1031.4646
72.54895 -95.752213 1003.9354 1003.9354
128.80075 -82.482719 1005.853 1005.853
75.814888 -22.515549 1041.5942 1041.5942
149.56332 -168.267 1046.3055 1046.3055
191.26671 -123.41888 1066.5045 1066.5045
139.89822 -180.28917 1055.708 1055.708
91.390732 -87.979904 1001.0991 1001.0991
83.337952 -149.58618 1014.7733 1014.7733
64.953575 -78.144943 1008.928 1008.928
81.213089 -186.34201 1053.1801 1053.1801
114.36374 -8.369278 1062.6169 1062.6169
14.283614 -145.65109 1076.1531 1076.1531
130.36206 -170.17279 1035.5491 1035.5491
33.689823 -84.621361 1026.7439 1026.7439
54.829163 -100.77961 1010.7869 1010.7869
103.21245 -192.45091 1062.0197 1062.0197
88.59819 -4.1044312 1074.0377 1074.0377
105.83117 -17.97937 1043.0912 1043.0912
187.48715 -83.135437 1054.5953 1054.5953
66.183632 -111.55167 1006.6029 1006.6029
187.94025 -60.295731 1073.7306 1073.7306
56.542175 -27.674759 1046.33 1046.33
126.27966 -12.287857 1059.801 1059.801
117.42457 -117.37296 1003.0745 1003.0745
121.39893 -97.801292 1002.3411 1002.3411
110.08384 -86.61792 1001.4138 1001.4138
106.29314 -120.62926 1002.3535 1002.3535
52.877598 -65.016724 1019.033 1019.033
27.954582 -110.6843 1031.4777 1031.4777
82.395889 -17.614227 1046.1235 1046.1235
150.25479 -91.577255 1013.9563 1013.9563
119.48282 -187.73473 1056.1476 1056.1476
56.765354 -116.92557 1011.432 1011.432
19.534496 -108.52696 1041.2412 1041.2412
59.028278 -47.748322 1025.2264 1025.2264
123.99094 -101.57594 1002.9333 1002.9333
3.0691369 -116.70123 1081.959 1081.959
138.97466 -24.57164 1047.165 1047.165
67.706223 -102.04385 1005.3801 1005.3801
73.196457 -139.49387 1012.1262 1012.1262
120.95239 -180.2085 1044.0751 1044.0751
138.91681 -102.25071 1007.9108 1007.9108
70.5429 -157.63426 1023.7729 1023.7729
88.162491 -167.45406 1027.1315 1027.1315
18.638355 -57.491241 1060.3353 1060.3353
138.79965 -117.43282 1009.4976 1009.4976
107.07529 -52.182404 1012.459 1012.459
119.5838 -130.81285 1006.9031 1006.9031
96.823349 -71.331741 1004.2501 1004.2501
182.71849 -91.187668 1044.5023 1044.5023
167.93057 -76.779106 1030.3851 1030.3851
42.272835 -41.397629 1043.1376 1043.1376
123.00432 -118.77342 1004.5099 1004.5099
192.32936 -119.08404 1066.667 1066.667
104.63157 -99.704781 1000.1077 1000.1077
124.7991 -23.98439 1039.9447 1039.9447
12.17186 -104.50045 1052.3978 1052.3978
35.43956 -100.87105 1023.6378 1023.6378
124.07911 -35.258438 1027.6901 1027.6901
68.615028 -95.921234 1005.1404 1005.1404
64.128555 -171.50902 1040.0024 1040.0024
69.280121 -55.752808 1015.7476 1015.7476
82.402748 -89.107285 1002.165 1002.165
120.33317 -24.255219 1037.9574 1037.9574
153.0433 -53.981476 1028.8052 1028.8052
138.33618 -173.96951 1044.6931 1044.6931
73.657356 -58.216019 1013.0508 1013.0508
105.38721 -22.531357 1036.9954 1036.9954
28.477692 -164.04079 1072.0118 1072.0118
36.623318 -126.27442 1027.2466 1027.2466
117.77013 -127.77368 1005.5922 1005.5922
5.7132611 -77.368927 1075.5491 1075.5491
68.12484 -46.455475 1021.789 1021.789
12.517248 -87.531265 1053.1887 1053.1887
188.66322 -56.726608 1083.683 1083.683
182.45226 -127.2066 1050.3872 1050.3872
37.127995 -130.75203 1028.5758 1028.5758
151.17302 -112.3388 1014.976 1014.976
63.044094 -21.950302 1049.5768 1049.5768
56.462662 -84.964691 1011.2394 1011.2394
131.80434 -78.843666 1007.5831 1007.5831
189.37874 -79.313507 1060.2067 1060.2067
190.45271 -67.160507 1072.7993 1072.7993
113.53146 -111.42674 1001.5809 1001.5809
46.508766 -65.786011 1022.7466 1022.7466
106.6159 -185.86569 1049.1737 1049.1737
66.959305 -124.5407 1008.8624 1008.8624
57.064491 -30.617218 1042.1851 1042.1851
119.29427 -147.92879 1014.3813 1014.3813
53.431862 -24.888748 1053.2057 1053.2057
83.40374 -66.83577 1007.1307 1007.1307
121.67912 -149.22028 1015.6947 1015.6947
44.857361 -112.24972 1017.4819 1017.4819
157.7771 -91.798676 1018.7932 1018.7932
20.887531 -74.98748 1044.1825 1044.1825
85.868263 -49.306458 1014.9679 1014.9679
125.56525 -146.87111 1015.4452 1015.4452
87.972084 -35.156464 1024.8292 1024.8292
41.966965 -162.5712 1047.875 1047.875
76.458069 -93.362999 1003.0375 1003.0375
21.763683 -154.36479 1069.6101 1069.6101
160.23306 -59.616806 1031.1438 1031.1438
180.76552 -70.526886 1048.9288 1048.9288
37.904537 -174.12598 1074.5149 1074.5149
127.23698 -157.91335 1023.1613 1023.1613
113.26501 -128.74429 1005.1432 1005.1432
170.85782 -103.12332 1029.506 1029.506
189.43893 -107.86273 1055.9675 1055.9675
6.3668871 -95.168816 1065.2222 1065.2222
123.52395 -113.09854 1003.6929 1003.6929
85.681763 -84.331306 1002.2786 1002.2786
175.77249 -72.908318 1040.632 1040.632
31.23613 -163.76297 1065.2751 1065.2751
5.1135898 -121.3636 1076.7585 1076.7585
91.470024 -81.383766 1002.1191 1002.1191
8.8782625 -84.930122 1061.663 1061.663
90.618309 -18.351685 1043.0304 1043.0304
48.41608 -158.85156 1037.7457 1037.7457
106.29685 -128.41316 1004.3285 1004.3285
38.162468 -34.04422 1057.2688 1057.2688
80.512283 -32.033951 1029.2833 1029.2833
129.94496 -180.57841 1048.9077 1048.9077
122.66233 -105.35476 1002.7491 1002.7491
62.732822 -180.21826 1053.3503 1053.3503
64.334801 -90.41581 1007.0692 1007.0692
180.80861 -88.860634 1042.1564 1042.1564
91.377296 -125.22189 1003.6179 1003.6179
67.489479 -92.905869 1005.6987 1005.6987
37.465645 -40.651474 1049.3324 1049.3324
104.52069 -48.421097 1014.4478 1014.4478
66.618126 -9.1387939 1074.9023 1074.9023
112.65426 -167.40215 1027.2207 1027.2207
102.33229 -49.700897 1013.6023 1013.6023
189.83809 -60.250549 1081.3158 1081.3158
137.09447 -167.10735 1035.8081 1035.8081
94.73539 -115.61692 1001.3674 1001.3674
140.46492 -183.71587 1063.2 1063.2
154.77008 -50.44046 1032.5901 1032.5901
183.69606 -83.308624 1047.8812 1047.8812
82.083252 -86.106613 1002.6041 1002.6041
72.615936 -164.12341 1028.3181 1028.3181
190.16388 -83.994843 1059.8215 1059.8215
79.803291 -7.6323242 1067.4376 1067.4376
23.481129 -71.815506 1042.1166 1042.1166
154.27922 -57.844208 1027.3594 1027.3594
76.457275 -48.614136 1017.5062 1017.5062
194.4136 -79.421402 1074.2592 1074.2592
35.467937 -58.315659 1035.9841 1035.9841
134.48495 -106.93189 1006.3905 1006.3905
60.107948 -94.306496 1008.4784 1008.4784
124.29481 -15.446426 1052.4558 1052.4558
138.81841 -164.63124 1034.3042 1034.3042
53.726154 -98.556496 1011.3622 1011.3622
167.47298 -78.116966 1029.5122 1029.5122
115.50425 -87.62616 1001.9872 1001.9872
95.502357 -90.257904 1000.5773 1000.5773
81.583992 -8.6171875 1063.8057 1063.8057
138.83282 -103.91588 1007.9312 1007.9312
65.101707 -18.972916 1052.918 1052.918
57.950855 -14.56694 1069.454 1069.454
136.36815 -12.098923 1069.1656 1069.1656
138.71252 -138.89128 1016.4009 1016.4009
74.077614 -29.407867 1034.0851 1034.0851
110.02877 -31.51062 1027.8292 1027.8292
184.41241 -134.88632 1059.2877 1059.2877
124.39077 -21.545792 1042.991 1042.991
91.926231 -93.022919 1000.5709 1000.5709
124.21571 -142.49384 1012.7769 1012.7769
114.41871 -176.09668 1036.7434 1036.7434
57.14175 -159.54816 1032.05 1032.05
53.492195 -186.58397 1081.5544 1081.5544
39.419323 -97.122177 1020.4909 1020.4909
15.074432 -149.79532 1082.448 1082.448
92.16214 -26.194214 1032.983 1032.983
100.81778 -103.16776 1000.0535 1000.0535
22.33176 -53.220093 1057.8185 1057.8185
37.349804 -155.39639 1045.1713 1045.1713
67.770042 -32.676361 1033.451 1033.451
43.242828 -149.10147 1033.9116 1033.9116
100.67075 -146.59291 1011.5203 1011.5203
18.023993 -59.294479 1059.7136 1059.7136
87.409966 -177.93396 1038.6177 1038.6177
156.69902 -66.320618 1024.8274 1024.8274
22.480392 -122.98943 1041.1595 1041.1595
65.573723 -59.26413 1015.4103 1015.4103
113.18205 -127.87534 1004.8727 1004.8727
109.79224 -115.15173 1001.6407 1001.6407
55.714905 -131.36571 1016.0058 1016.0058
66.407585 -92.747604 1006.0907 1006.0907
119.51858 -117.13902 1003.4325 1003.4325
97.451233 -102.29946 1000.059 1000.059
156.62711 -152.99515 1036.874 1036.874
113.51244 -84.676292 1002.1093 1002.1093
72.474876 -48.01152 1019.1324 1019.1324
41.756012 -135.00612 1026.6365 1026.6365
114.05546 -39.430771 1021.6813 1021.6813
92.025261 -144.9978 1011.0528 1011.0528
97.883659 -198.0817 1080.6221 1080.6221
145.05911 -132.56346 1016.8778 1016.8778
198.27399 -108.16293 1083.399 1083.399
85.876007 -99.689613 1001.0029 1001.0029
146.70233 -157.94452 1033.2068 1033.2068
180.76883 -102.93729 1041.1123 1041.1123
180.20578 -73.333565 1046.5591 1046.5591
129.52252 -193.10306 1078.5468 1078.5468
67.776024 -174.29817 1041.3365 1041.3365
117.77422 -133.86629 1007.6033 1007.6033
144.53108 -38.626556 1034.8058 1034.8058
28.221777 -150.70677 1052.2852 1052.2852
132.37622 -77.909531 1008.0012 1008.0012
114.40873 -57.455475 1010.656 1010.656
129.49661 -175.24524 1041.1094 1041.1094
54.195667 -87.256279 1012.0252 1012.0252
79.863235 -149.55408 1015.5079 1015.5079
7.6948986 -69.168777 1076.9956 1076.9956
138.79156 -47.966553 1023.9229 1023.9229
135.72385 -137.09322 1014.2801 1014.2801
143.69684 -103.76105 1010.131 1010.131
20.677559 -134.48911 1049.8158 1049.8158
103.61651 -172.30739 1031.0177 1031.0177
74.417801 -21.114944 1044.1189 1044.1189
73.867035 -139.48224 1011.9193 1011.9193
71.059647 -188.54073 1063.627 1063.627
44.374077 -155.40875 1038.0675 1038.0675
23.872423 -125.7883 1040.5059 1040.5059
104.08586 -71.509857 1004.2314 1004.2314
187.44955 -100.16485 1051.4969 1051.4969
114.22956 -60.155792 1009.3912 1009.3912
139.56299 -146.52411 1020.8149 1020.8149
134.52428 -192.96394 1087.1245 1087.1245
194.86403 -93.297516 1069.0825 1069.0825
125.59257 -87.680649 1004.1185 1004.1185
70.343262 -163.68663 1028.8347 1028.8347
40.02121 -44.681488 1042.1864 1042.1864
152.69705 -60.425049 1024.788 1024.788
160.2123 -76.357079 1023.7406 1023.7406
102.78207 -2.4607086 1078.1289 1078.1289
134.65192 -97.675812 1006.2245 1006.2245
162.47346 -139.38751 1032.5782 1032.5782
8.532711 -106.13307 1060.0485 1060.0485
96.92981 -134.21494 1006.0856 1006.0856
78.055222 -99.883614 1002.4376 1002.4376
171.81889 -63.266647 1040.9009 1040.9009
111.96098 -107.46287 1000.9988 1000.9988
159.37802 -127.4054 1024.3481 1024.3481
55.442039 -90.495827 1010.9817 1010.9817
126.71297 -112.70979 1004.4758 1004.4758
42.244328 -166.33786 1052.423 1052.423
49.092194 -153.82811 1032.8365 1032.8365
71.986595 -72.407021 1008.0551 1008.0551
121.21162 -45.46524 1018.9073 1018.9073
101.99767 -60.92717 1007.9711 1007.9711
144.9655 -165.7225 1039.5132 1039.5132
45.397511 -100.29682 1016.2236 1016.2236
80.843575 -77.461937 1004.4748 1004.4748
38.355682 -28.846466 1066.2783 1066.2783
126.19553 -65.590317 1009.8348 1009.8348
130.33395 -74.915329 1008.0728 1008.0728
143.49594 -14.27066 1072.4576 1072.4576
87.167892 -132.61012 1006.3415 1006.3415
116.30052 -81.028282 1003.1787 1003.1787
80.666176 -53.756592 1013.4682 1013.4682
119.1077 -148.24207 1014.5155 1014.5155
23.111992 -62.596268 1048.1426 1048.1426
91.031937 -2.0627899 1081.8926 1081.8926
133.7446 -27.147324 1040.3864 1040.3864
44.21236 -31.643051 1052.9355 1052.9355
161.1918 -130.46411 1027.0103 1027.0103
60.646732 -117.32922 1009.717 1009.717
132.38091 -178.40367 1047.0439 1047.0439
27.38151 -129.32553 1037.8182 1037.8182
28.446711 -106.0402 1030.4037 1030.4037
97.558983 -41.39682 1019.008 1019.008
118.13634 -56.791397 1011.6592 1011.6592
106.36306 -86.75219 1001.0859 1001.0859
178.5553 -132.00351 1047.0393 1047.0393
124.79339 -60.786163 1011.4135 1011.4135
143.90834 -168.40509 1041.7522 1041.7522
97.055923 -111.6131 1000.7203 1000.7203
32.906284 -113.39543 1027.0686 1027.0686
47.856827 -60.456833 1024.3864 1024.3864
142.8515 -56.862381 1020.6093 1020.6093
48.588203 -30.417664 1049.849 1049.849
19.82267 -128.64172 1047.5476 1047.5476
153.61577 -148.38394 1030.8311 1030.8311
77.619637 -57.787674 1012.1522 1012.1522
25.013199 -58.843323 1048.2013 1048.2013
157.65228 -125.47655 1022.3652 1022.3652
75.211075 -116.63125 1004.5594 1004.5594
140.35951 -73.681435 1012.3733 1012.3733
7.7574201 -85.97522 1064.0193 1064.0193
111.17615 -126.72649 1004.288 1004.288
67.874435 -89.505592 1005.884 1005.884
68.296692 -121.32383 1007.5869 1007.5869
57.057846 -150.79323 1025.3273 1025.3273
94.528152 -106.52176 1000.363 1000.363
45.24165 -172.00414 1057.3745 1057.3745
52.756626 -17.535812 1068.8917 1068.8917
144.88806 -175.54428 1052.2703 1052.2703
34.605099 -160.02025 1053.9448 1053.9448
95.670059 -92.401215 1000.3832 1000.3832
31.610628 -147.01816 1044.213 1044.213
9.2523499 -121.46225 1063.8857 1063.8857
168.7525 -121.99097 1030.7938 1030.7938
150.29457 -165.99924 1044.1918 1044.1918
148.56287 -71.570145 1017.3357 1017.3357
34.323223 -104.07597 1024.7009 1024.7009
137.12495 -62.008514 1015.2747 1015.2747
93.794243 -16.312714 1045.6132 1045.6132
157.25278 -120.11985 1020.5185 1020.5185
99.999008 -154.44672 1016.1218 1016.1218
126.79816 -36.740143 1027.3361 1027.3361
186.85275 -78.996025 1055.1064 1055.1064
92.46196 -74.629684 1003.566 1003.566
181.19405 -153.94141 1077.6874 1077.6874
114.71075 -197.54556 1083.6154 1083.6154
15.564783 -117.79839 1049.4637 1049.4637
61.352394 -21.579117 1051.4559 1051.4559
85.30793 -124.9444 1004.2821 1004.2821
83.295265 -132.35474 1006.8651 1006.8651
189.07077 -63.695114 1072.6439 1072.6439
51.608932 -110.5922 1013.1317 1013.1317
117.175 -32.968369 1027.8074 1027.8074
19.379148 -135.84286 1052.9302 1052.9302
66.346756 -135.29413 1012.6971 1012.6971
177.86143 -71.220535 1044.2385 1044.2385
149.2227 -123.52367 1016.1921 1016.1921
51.458561 -44.453735 1032.4845 1032.4845
75.946091 -96.620384 1002.9949 1002.9949
54.60775 -11.981369 1086.134 1086.134
157.4686 -136.63818 1026.8221 1026.8221
23.891413 -129.66199 1042.3142 1042.3142
72.637138 -167.80605 1031.7826 1031.7826
78.293251 -96.684944 1002.4407 1002.4407
26.023287 -35.044495 1082.4436 1082.4436
126.79416 -141.97137 1013.2793 1013.2793
38.218655 -128.62875 1026.7644 1026.7644
121.23767 -192.60283 1068.7963 1068.7963
193.03795 -72.776009 1075.4481 1075.4481
99.518738 -94.836632 1000.1345 1000.1345
26.017221 -148.18863 1053.049 1053.049
38.948971 -99.632965 1020.8 1020.8
21.953844 -102.76968 1037.541 1037.541
49.503361 -184.60498 1082.9094 1082.9094
39.46339 -119.58691 1022.8529 1022.8529
42.219368 -105.90519 1018.5965 1018.5965
45.448112 -56.358154 1028.4495 1028.4495
147.05029 -52.908951 1025.3762 1025.3762
110.59035 -91.495255 1000.9268 1000.9268
99.325485 -140.6069 1008.6182 1008.6182
38.308426 -142.84393 1033.9807 1033.9807
165.07227 -113.54409 1025.2861 1025.2861
133.49239 -129.7753 1010.6038 1010.6038
6.4296865 -105.9595 1065.2281 1065.2281
133.60001 -46.893494 1022.2135 1022.2135
108.11919 -13.70137 1050.1339 1050.1339
196.1192 -94.745598 1072.917 1072.917
122.96297 -61.210922 1010.7357 1010.7357
122.73151 -24.197693 1038.8666 1038.8666
167.50789 -140.58398 1038.3914 1038.3914
36.925388 -63.224442 1031.6688 1031.6688
97.448036 -97.417534 1000.0659 1000.0659
30.333052 -63.286835 1038.3667 1038.3667
106.10323 -119.37511 1002.085 1002.085
18.071682 -98.604057 1042.6781 1042.6781
150.35164 -113.69379 1014.6935 1014.6935
167.42813 -50.536606 1045.1655 1045.1655
33.653748 -122.49581 1028.641 1028.641
132.94557 -151.34093 1020.7618 1020.7618
120.9621 -62.503677 1009.6971 1009.6971
130.14725 -22.03627 1045.111 1045.111
66.328392 -45.5354 1023.1896 1023.1896
140.74272 -175.5688 1048.7224 1048.7224
86.365547 -196.91243 1079.4553 1079.4553
164.17168 -121.19234 1026.2919 1026.2919
147.52785 -26.06279 1052.3094 1052.3094
196.00238 -108.70348 1073.3956 1073.3956
32.970318 -53.916183 1041.8339 1041.8339
84.184364 -38.57135 1022.6929 1022.6929
158.14174 -154.56943 1039.6533 1039.6533
75.30925 -65.850159 1009.3129 1009.3129
172.87585 -164.78484 1077.8181 1077.8181
58.141869 -44.215088 1028.3345 1028.3345
84.384361 -112.49908 1002.0208 1002.0208
97.93457 -13.95256 1049.0925 1049.0925
183.23579 -90.080872 1045.4709 1045.4709
68.039909 -175.91656 1043.297 1043.297
109.77957 -69.576782 1005.2435 1005.2435
35.426197 -149.62202 1041.9666 1041.9666
11.026174 -122.26036 1060.1486 1060.1486
84.66526 -173.46983 1033.9165 1033.9165
185.42574 -81.821213 1051.2971 1051.2971
33.404873 -99.780823 1025.4008 1025.4008
40.315903 -108.09603 1020.1735 1020.1735
44.676517 -155.47495 1037.8563 1037.8563
138.65457 -132.05722 1013.5237 1013.5237
78.143562 -55.790985 1013.0065 1013.0065
70.268417 -12.853745 1060.9928 1060.9928
44.673492 -34.074707 1049.0801 1049.0801
84.937714 -194.13815 1069.8149 1069.8149
19.526907 -67.307739 1050.4491 1050.4491
89.628098 -186.83714 1051.5054 1051.5054
110.59947 -106.99085 1000.8094 1000.8094
168.31189 -83.419868 1028.8762 1028.8762
52.330708 -115.11954 1013.403 1013.403
118.7883 -121.93307 1004.2611 1004.2611
152.22816 -53.314972 1028.6367 1028.6367
194.9104 -85.54232 1072.0181 1072.0181
102.10616 -50.183792 1013.3172 1013.3172
99.814178 -62.524399 1007.2878 1007.2878
133.00186 -146.03751 1017.5899 1017.5899
101.75908 -70.035522 1004.6111 1004.6111
140.19696 -158.61435 1029.6539 1029.6539
29.02512 -47.81398 1052.6799 1052.6799
65.699043 -153.69006 1022.9233 1022.9233
175.51447 -113.41556 1035.8315 1035.8315
72.777275 -9.15448 1068.2822 1068.2822
96.093552 -59.113144 1008.8243 1008.8243
162.53746 -157.07295 1046.7859 1046.7859
150.62187 -49.067856 1030.4059 1030.4059
23.983313 -105.44281 1035.2556 1035.2556
77.79834 -4.8085938 1078.8888 1078.8888
91.757324 -17.946671 1043.4376 1043.4376
136.97812 -143.4978 1017.8991 1017.8991
80.2201 -186.48312 1053.8542 1053.8542
157.76373 -163.21211 1048.3513 1048.3513
155.39034 -116.11217 1018.3158 1018.3158
73.979004 -178.75316 1044.1355 1044.1355
56.165367 -179.20847 1057.52 1057.52
124.12263 -110.07729 1003.4777 1003.4777
136.57535 -58.935242 1016.478 1016.478
137.43965 -92.014122 1007.6177 1007.6177
68.820839 -178.00156 1045.7449 1045.7449
155.81024 -60.017471 1027.2909 1027.2909
175.89409 -123.7545 1039.3716 1039.3716
141.11324 -22.780197 1051.5562 1051.5562
184.66609 -70.29689 1055.8483 1055.8483
57.468086 -171.31006 1044.2693 1044.2693
41.010677 -128.44299 1024.4271 1024.4271
54.391087 -64.020432 1018.6041 1018.6041
20.022991 -119.47467 1043.2161 1043.2161
171.73563 -56.457275 1045.6122 1045.6122
169.07689 -94.488075 1027.9028 1027.9028
43.980209 -123.67648 1020.6199 1020.6199
128.21201 -22.225906 1043.8281 1043.8281
125.30271 -19.508057 1046.3268 1046.3268
172.89819 -121.26335 1034.933 1034.933
99.755135 -170.04124 1028.6266 1028.6266
183.24471 -85.867287 1046.4221 1046.4221
172.34375 -118.72503 1033.5488 1033.5488
61.56023 -167.4747 1036.9956 1036.9956
73.409454 -59.408966 1012.5625 1012.5625
88.630936 -53.570343 1012.1647 1012.1647
143.77589 -73.020462 1014.2342 1014.2342
84.347824 -67.900925 1006.5941 1006.5941
164.57799 -105.58672 1023.8523 1023.8523
117.30201 -123.10235 1004.256 1004.256
143.52914 -60.277588 1019.208 1019.208
58.782612 -130.99638 1014.3242 1014.3242
71.094528 -61.784256 1012.2274 1012.2274
31.068342 -124.4826 1031.8162 1031.8162
127.68368 -156.55408 1022.3131 1022.3131
194.16139 -99.310959 1066.3376 1066.3376
90.111633 -180.54294 1041.5615 1041.5615
28.896158 -120.60847 1032.7725 1032.7725
111.61957 -130.04118 1005.3295 1005.3295
172.88263 -111.48806 1032.5007 1032.5007
47.075809 -46.117767 1034.4581 1034.4581
100.84339 -52.331451 1012.0967 1012.0967
134.39255 -90.963493 1006.5361 1006.5361
51.110123 -19.728439 1065.8495 1065.8495
102.37371 -63.964493 1006.7487 1006.7487
140.18399 -187.75005 1073.8241 1073.8241
168.56265 -73.618332 1032.1533 1032.1533
62.905739 -53.091919 1019.8524 1019.8524
22.91857 -133.63524 1045.8971 1045.8971
158.75288 -167.04819 1054.694 1054.694
21.137363 -129.91223 1046.2791 1046.2791
136.356 -191.89987 1084.7469 1084.7469
137.13403 -8.2752228 1085.5907 1085.5907
72.075577 -85.782539 1005.0364 1005.0364
73.449402 -74.910294 1006.9109 1006.9109
142.22011 -186.73721 1073.6539 1073.6539
169.69879 -154.60449 1053.5197 1053.5197
79.683907 -20.580322 1042.7307 1042.7307
136.20004 -59.680481 1015.953 1015.953
116.37329 -179.36948 1041.4133 1041.4133
79.293983 -41.22374 1021.7913 1021.7913
89.802223 -157.20299 1018.6132 1018.6132
58.921158 -115.70803 1010.1903 1010.1903
138.58296 -86.964966 1008.6685 1008.6685
90.887352 -5.6555786 1068.1238 1068.1238
55.916893 -159.7793 1033.0439 1033.0439
59.261948 -21.384354 1053.5243 1053.5243
193.74115 -65.48877 1095.3555 1095.3555
39.7658 -149.33141 1037.2445 1037.2445
87.661949 -5.5843048 1069.4476 1069.4476
150.52013 -96.954666 1013.7536 1013.7536
150.23851 -146.31519 1026.9863 1026.9863
56.394745 -77.448402 1012.8793 1012.8793
136.04916 -94.846786 1006.8662 1006.8662
21.236267 -154.33434 1070.9474 1070.9474
103.2606 -96.248604 1000.1236 1000.1236
133.02751 -188.08382 1066.082 1066.082
158.10034 -155.6866 1040.6422 1040.6422
181.93968 -49.449539 1072.9716 1072.9716
109.36109 -66.065216 1006.4009 1006.4009
84.319344 -58.325333 1010.4604 1010.4604
55.602318 -122.77174 1013.3381 1013.3381
43.747349 -81.538055 1019.4097 1019.4097
22.945324 -102.46614 1036.3093 1036.3093
142.28209 -177.12648 1052.4213 1052.4213
152.0611 -155.53668 1035.1516 1035.1516
148.4021 -77.31292 1015.4865 1015.4865
87.936249 -115.43078 1001.937 1001.937
4.314569 -115.88473 1075.6694 1075.6694
91.257744 -100.16312 1000.383 1000.383
147.11926 -118.73519 1013.8097 1013.8097
102.76714 -11.655243 1053.2288 1053.2288
102.59752 -190.75027 1058.0758 1058.0758
104.444 -60.230286 1008.356 1008.356
179.73941 -126.26276 1045.6687 1045.6687
184.98859 -129.53818 1056.3601 1056.3601
68.333183 -97.247864 1005.1863 1005.1863
173.96454 -71.954376 1038.8225 1038.8225
66.628326 -60.960281 1014.1965 1014.1965
87.373276 -162.3902 1022.8765 1022.8765
123.19546 -81.160942 1004.5691 1004.5691
78.171631 -116.8186 1003.8716 1003.8716
58.386261 -107.25357 1009.3596 1009.3596
97.699547 -191.59192 1059.9297 1059.9297
133.47118 -170.46301 1037.4329 1037.4329
150.81889 -70.058212 1019.2477 1019.2477
72.471832 -152.53777 1019.4893 1019.4893
52.6464 -168.67966 1044.8571 1044.8571
77.592812 -140.73309 1011.4634 1011.4634
42.909241 -133.75171 1025.1571 1025.1571
49.550499 -111.60303 1014.4417 1014.4417
163.92679 -48.084396 1043.2714 1043.2714
189.36868 -95.286003 1055.3792 1055.3792
42.864754 -156.67021 1040.6362 1040.6362
98.165962 -155.51593 1016.8458 1016.8458
161.175 -122.43661 1024.1434 1024.1434
26.309994 -42.988342 1063.6757 1063.6757
2.9517748 -109.27438 1077.7373 1077.7373
121.87282 -118.87351 1004.264 1004.264
118.90365 -132.45203 1007.3204 1007.3204
82.908646 -34.903885 1026.038 1026.038
166.86388 -55.068253 1040.7517 1040.7517
132.98228 -174.07704 1041.4785 1041.4785
127.87321 -172.0011 1036.4475 1036.4475
129.38783 -188.81021 1064.6573 1064.6573
97.278954 -12.454407 1051.7468 1051.7468
96.550941 -33.986832 1024.9642 1024.9642
191.49248 -79.175606 1065.4244 1065.4244
164.8058 -115.39832 1025.4138 1025.4138
21.025114 -72.727371 1045.053 1045.053
57.636845 -44.667297 1028.2808 1028.2808
113.74422 -106.48457 1001.1615 1001.1615
168.974 -74.301865 1032.3081 1032.3081
137.47913 -74.799522 1010.7798 1010.7798
20.789244 -80.22348 1042.2545 1042.2545
158.09329 -81.927361 1020.6366 1020.6366
120.96312 -174.1953 1036.3164 1036.3164
146.43329 -74.611832 1015.1508 1015.1508
21.501125 -89.531197 1038.9399 1038.9399
52.902061 -24.105972 1055.0347 1055.0347
144.46423 -142.82509 1021.3301 1021.3301
9.1561337 -128.7874 1069.6903 1069.6903
68.478691 -194.82396 1096.1498 1096.1498
139.96159 -105.8849 1008.5208 1008.5208
85.927185 -182.05762 1044.606 1044.606
40.406216 -57.941895 1031.5917 1031.5917
7.8481293 -75.155235 1070.1542 1070.1542
104.78891 -175.54182 1034.651 1034.651
94.083359 -160.91545 1020.9159 1020.9159
58.82312 -161.16756 1032.4501 1032.4501
148.47565 -107.82867 1012.8862 1012.8862
126.96642 -191.53619 1070.1012 1070.1012
97.122063 -167.0799 1025.892 1025.892
84.651199 -32.866608 1027.4912 1027.4912
86.791801 -118.4741 1002.6129 1002.6129
88.716965 -163.37582 1023.4742 1023.4742
99.549225 -89.956032 1000.5067 1000.5067
50.977356 -86.001335 1013.972 1013.972
84.27581 -163.72942 1024.5592 1024.5592
62.21283 -58.516159 1017.2279 1017.2279
127.53391 -175.83655 1040.9178 1040.9178
32.582993 -154.327 1049.9647 1049.9647
55.935593 -127.04202 1014.4018 1014.4018
109.35828 -3.5018921 1075.4941 1075.4941
122.12309 -160.08363 1023.1851 1023.1851
77.354828 -79.623566 1004.753 1004.753
77.393684 -29.784256 1032.4818 1032.4818
185.45587 -74.547127 1054.7292 1054.7292
89.709618 -153.78519 1016.3265 1016.3265
33.616737 -69.826431 1031.5688 1031.5688
105.97758 -35.123688 1024.1361 1024.1361
138.26215 -63.682495 1015.0468 1015.0468
80.074448 -165.25334 1026.8906 1026.8906
40.367085 -26.013687 1068.8561 1068.8561
136.34785 -95.949936 1006.9278 1006.9278
40.59549 -112.48598 1020.5317 1020.5317
182.00481 -108.42753 1043.3944 1043.3944
53.280544 -78.616928 1014.2092 1014.2092
118.53994 -19.021988 1044.3329 1044.3329
123.09077 -36.204803 1026.5358 1026.5358
168.65953 -47.752151 1049.4427 1049.4427
127.33904 -61.382904 1011.9018 1011.9018
139.54503 -117.4753 1009.829 1009.829
111.88315 -125.52492 1004.0455 1004.0455
166.60712 -28.741226 1077.9619 1077.9619
45.716942 -57.838791 1027.3655 1027.3655
139.03958 -64.45015 1015.0758 1015.0758
60.459541 -93.183502 1008.4026 1008.4026
54.560841 -78.152153 1013.6406 1013.6406
92.851662 -104.95417 1000.3789 1000.3789
179.54384 -75.93306 1044.3802 1044.3802
39.391273 -161.30521 1049.322 1049.322
87.349854 -54.368454 1011.922 1011.922
105.31229 -142.90103 1009.8264 1009.8264
92.180138 -14.215149 1049.2081 1049.2081
135.54037 -104.46062 1006.6352 1006.6352
183.96722 -119.53877 1049.3271 1049.3271
173.17821 -148.53934 1052.1577 1052.1577
190.04218 -119.95169 1061.3434 1061.3434
57.424145 -105.52332 1009.6851 1009.6851
75.720985 -43.253983 1021.3208 1021.3208
130.6871 -101.27345 1004.8334 1004.8334
59.27483 -59.912659 1017.9362 1017.9362
64.397278 -143.51306 1017.3014 1017.3014
50.100307 -180.97531 1069.129 1069.129
184.53598 -109.27031 1047.3907 1047.3907
190.6734 -89.569054 1059.1401 1059.1401
114.50391 -160.43634 1021.6605 1021.6605
116.43227 -135.63962 1008.0228 1008.0228
99.452026 -136.37454 1006.8517 1006.8517
63.365543 -154.1581 1024.3375 1024.3375
2.5802753 -88.910004 1080.3427 1080.3427
171.90875 -93.999077 1030.7676 1030.7676
156.14066 -124.29142 1020.8915 1020.8915
47.419704 -101.28043 1014.949 1014.949
27.452192 -127.45689 1036.8895 1036.8895
30.921394 -59.780823 1039.912 1039.912
144.74348 -26.487701 1049.0691 1049.0691
74.01107 -49.821014 1017.4976 1017.4976
18.862356 -52.638824 1065.7422 1065.7422
54.190655 -131.77548 1016.983 1016.983
95.461037 -191.80388 1060.6116 1060.6116
35.126263 -107.58656 1024.2778 1024.2778
66.489563 -83.668877 1007.2081 1007.2081
44.010593 -169.09854 1054.2771 1054.2771
90.136162 -26.32753 1033.104 1033.104
63.189922 -75.87484 1010.2058 1010.2058
178.13101 -67.178162 1046.9126 1046.9126
160.72479 -89.133873 1021.2953 1021.2953
140.91734 -125.45364 1012.3765 1012.3765
121.98071 -76.602066 1005.2932 1005.2932
186.29514 -93.594154 1049.879 1049.879
116.29064 -126.24644 1004.8909 1004.8909
81.895874 -195.88785 1078.1422 1078.1422
105.50548 -40.090561 1020.1216 1020.1216
14.77183 -87.064102 1049.3164 1049.3164
64.653069 -169.76677 1037.6847 1037.6847
126.61036 -53.642563 1015.4844 1015.4844
188.21762 -56.957062 1080.8961 1080.8961
47.968403 -137.95053 1023.4985 1023.4985
142.78822 -177.59544 1053.6522 1053.6522
70.024651 -52.11525 1017.4862 1017.4862
138.37152 -57.355927 1018.0908 1018.0908
95.423149 -79.184761 1002.2975 1002.2975
156.21849 -101.367 1017.3101 1017.3101
188.63556 -115.65035 1056.4247 1056.4247
41.41222 -82.145035 1020.9515 1020.9515
107.89877 -185.65195 1048.9966 1048.9966
49.211086 -172.688 1053.7729 1053.7729
128.4991 -65.636581 1010.5184 1010.5184
86.434853 -41.87674 1019.7649 1019.7649
138.32034 -96.361839 1007.7053 1007.7053
131.94954 -162.16179 1028.4797 1028.4797
124.28616 -140.73611 1011.9617 1011.9617
10.357265 -120.87872 1060.907 1060.907
35.223644 -29.136795 1072.0281 1072.0281
131.68575 -168.83224 1034.7456 1034.7456
97.636612 -44.997864 1016.5184 1016.5184
172.3394 -94.198921 1031.2006 1031.2006
63.363922 -93.062973 1007.2117 1007.2117
51.338493 -117.54704 1014.4187 1014.4187
184.78424 -56.935623 1069.0631 1069.0631
17.831207 -97.196342 1043.0752 1043.0752
88.102509 -68.51384 1005.8348 1005.8348
71.957855 -136.88487 1011.382 1011.382
76.136604 -166.76622 1029.4818 1029.4818
151.92426 -27.120712 1055.3628 1055.3628
159.87921 -128.62775 1025.2007 1025.2007
61.546497 -12.68428 1070.0452 1070.0452
