# .PCD v0.7 - Point Cloud Data file format
VERSION 0.7
FIELDS x y z intensity
SIZE 4 4 4 4
TYPE F F F F
COUNT 1 1 1 1
WIDTH 1163
HEIGHT 1
VIEWPOINT 0 0 0 1 0 0 0
POINTS 1163
DATA ascii
-46.878971 -99.519585 961.67035 961.67035
47.673218 -41.616959 984.28333 984.28333
28.905975 -53.804123 966.15259 966.15259
-43.084198 -25.65889 998.84192 998.84192
15.831284 -134.69765 957.55841 957.55841
73.456268 -47.89064 1006.5398 1006.5398
33.28392 -147.36493 968.46014 968.46014
11.566544 -84.188911 951.93762 951.93762
-73.156097 -60.188232 994.65375 994.65375
11.324753 -156.9646 968.59497 968.59497
-17.673546 -145.97058 962.96924 962.96924
36.286545 -147.32845 969.7298 969.7298
30.444885 -178.90952 996.64838 996.64838
-10.723091 -22.375031 987.8761 987.8761
22.886749 -21.34549 992.64441 992.64441
23.625687 -11.986267 1008.8246 1008.8246
44.214096 -11.903732 1033.1429 1033.1429
-9.9343567 -110.90091 951.09357 951.09357
38.363037 -106.57357 957.88556 957.88556
79.55864 -111.3755 990.49353 990.49353
-13.869705 -3.4791565 1027.8334 1027.8334
17.116837 -40.315063 971.61169 971.61169
-4.860527 -125.18119 953.34448 953.34448
5.2587051 -196.45439 1024.137 1024.137
9.9802628 -27.530701 981.8194 981.8194
18.209351 -116.61773 953.0863 953.0863
75.334915 -58.534653 998.95813 998.95813
19.949699 -193.71478 1021.3723 1021.3723
24.129745 -57.016296 962.99335 962.99335
-44.379925 -14.334839 1023.696 1023.696
15.505531 -90.42276 951.67474 951.67474
53.233429 -28.955383 1003.9689 1003.9689
-98.446411 -83.771431 1043.2965 1043.2965
-26.665413 -188.91547 1012.8113 1012.8113
65.828522 -91.767166 975.17468 975.17468
54.942581 -134.29593 973.80878 973.80878
52.595139 -108.48697 965.37305 965.37305
49.161453 -97.302269 962.96051 962.96051
-6.691864 -187.31693 1001.7198 1001.7198
-38.943325 -177.52225 1000.2635 1000.2635
-1.480217 -84.457336 951.22632 951.22632
-4.3878479 -174.47757 983.4129 983.4129
15.72049 -186.39458 1002.1581 1002.1581
5.9860077 -141.44266 959.18878 959.18878
-84.872292 -59.095093 1016.4816 1016.4816
13.275124 -106.00555 951.0672 951.0672
25.099197 -110.00902 953.71997 953.71997
-28.428131 -178.1286 994.43237 994.43237
21.369217 -11.981293 1007.62 1007.62
27.938782 -41.681091 973.72205 973.72205
-61.226212 -89.577362 971.62451 971.62451
77.939926 -112.84452 988.67804 988.67804
-51.306881 -63.62468 972.25403 972.25403
-2.2430038 -55.366074 960.54175 960.54175
-29.519585 -113.06194 955.35339 955.35339
30.983734 -134.64944 961.45947 961.45947
84.30751 -92.721664 996.71521 996.71521
-29.735306 -14.424133 1007.6611 1007.6611
1.3242264 -181.97986 992.75012 992.75012
77.985428 -43.743774 1022.5499 1022.5499
54.287308 -113.71415 967.14587 967.14587
41.202835 -146.52927 971.65875 971.65875
-29.499748 -46.850616 970.59656 970.59656
2.4109497 -44.218689 967.03839 967.03839
-91.019928 -112.07832 1010.3832 1010.3832
-43.576103 -74.037239 963.81964 963.81964
-39.891624 -74.834526 961.82202 961.82202
-29.507477 -60.527802 962.98706 962.98706
-31.110191 -116.44109 956.39526 956.39526
-33.082542 -171.08194 987.92822 987.92822
-52.438957 -85.655991 966.06903 966.06903
63.058929 -104.83469 972.53906 972.53906
14.434143 -73.267273 954.72662 954.72662
-60.661373 -86.089302 971.72681 971.72681
-30.840668 -90.409019 955.35925 955.35925
-2.8885651 -156.54858 967.57483 967.57483
0.61785889 -66.348343 955.83429 955.83429
-28.220009 -46.208435 970.56384 970.56384
-18.133186 -62.301117 959.17059 959.17059
40.706192 -154.96713 977.05054 977.05054
-36.292786 -145.97028 968.94714 968.94714
69.036911 -115.76192 979.39215 979.39215
60.953705 -118.92615 973.0166 973.0166
7.2162857 -71.270782 954.48792 954.48792
-73.714966 -152.40137 1007.3362 1007.3362
-0.33228302 -132.15739 955.31213 955.31213
-87.389847 -144.25244 1029.882 1029.882
52.32666 -138.96962 974.21552 974.21552
75.68132 -69.306213 992.29187 992.29187
12.987175 -191.86966 1012.6999 1012.6999
71.188339 -168.97069 1036.7612 1036.7612
15.327629 -48.615082 965.59235 965.59235
-28.637657 -26.491501 988.54773 988.54773
-3.4963379 -90.65461 950.49902 950.49902
-1.951889 -3.0153961 1025.7064 1025.7064
-79.460129 -85.360893 991.07813 991.07813
6.5590134 -99.871063 950.21539 950.21539
3.8245468 -105.3553 950.2168 950.2168
-17.357056 -175.05438 986.23816 986.23816
79.697632 -79.900429 993.04126 993.04126
73.234879 -63.941605 992.23804 992.23804
-95.318405 -91.682579 1020.9273 1020.9273
63.571396 -115.65265 974.41113 974.41113
-40.311062 -43.876297 977.71484 977.71484
-93.57563 -96.911606 1014.8708 1014.8708
-99.065994 -99.307724 1036.3821 1036.3821
75.287949 -118.46544 986.82758 986.82758
-12.108719 -55.010498 961.51654 961.51654
-36.319141 -14.804153 1012.2828 1012.2828
11.834297 -17.769379 994.33966 994.33966
-47.83622 -33.493347 992.65399 992.65399
33.067673 -155.27856 973.5094 973.5094
-37.307091 -67.445053 963.11871 963.11871
-48.345192 -59.47316 972.4093 972.4093
84.873398 -147.91948 1027.6342 1027.6342
-39.922791 -127.02898 962.38947 962.38947
-4.0681 -66.240326 955.95886 955.95886
-43.374168 -95.776657 959.9953 959.9953
4.3417587 -24.232025 984.88196 984.88196
20.512093 -124.97486 955.36646 955.36646
62.20491 -174.53638 1026.0234 1026.0234
-86.566772 -148.33899 1036.9794 1036.9794
14.695511 -152.22018 965.99347 965.99347
-19.995346 -141.61551 961.29639 961.29639
5.6491699 -158.31424 968.95966 968.95966
55.837555 -39.742218 992.98102 992.98102
-55.755035 -155.62114 988.37482 988.37482
27.716125 -178.35941 994.39764 994.39764
50.876572 -180.60988 1019.7738 1019.7738
-72.956741 -50.058121 1003.2761 1003.2761
-49.851109 -25.413757 1005.8213 1005.8213
-3.324173 -143.63103 960.08179 960.08179
90.835281 -82.577286 1011.9816 1011.9816
52.420105 -22.729248 1014.2039 1014.2039
65.300186 -119.20327 976.73938 976.73938
-73.550407 -91.132545 982.83075 982.83075
-35.262421 -122.48707 959.16559 959.16559
-49.602711 -117.56174 964.96381 964.96381
-23.564888 -62.95462 960.15381 960.15381
-49.489967 -56.433685 974.81543 974.81543
-0.2976532 -156.95532 967.80511 967.80511
98.121613 -96.504272 1031.0282 1031.0282
-41.028492 -73.763405 962.65985 962.65985
-13.720764 -120.89581 953.17487 953.17487
13.327789 -84.235931 952.15387 952.15387
-60.980751 -74.755348 974.87305 974.87305
10.410378 -9.850174 1007.9925 1007.9925
-72.475807 -131.05038 988.49286 988.49286
42.821671 -135.8613 967.05261 967.05261
35.224564 -102.0078 956.43079 956.43079
86.657928 -123.77735 1006.1247 1006.1247
-25.566658 -192.83826 1023.0296 1023.0296
-99.647758 -98.294617 1041.7893 1041.7893
-52.996971 -170.9671 1003.5781 1003.5781
-84.341408 -65.570923 1008.7548 1008.7548
-47.618843 -112.9882 963.03015 963.03015
-74.597351 -68.648407 991.24359 991.24359
-75.152328 -124.97221 988.93842 988.93842
-7.677742 -56.133987 960.46326 960.46326
86.864502 -71.171753 1009.7075 1009.7075
44.990738 -73.626305 964.67554 964.67554
-49.394585 -113.44255 964.09613 964.09613
-28.072754 -135.088 960.66492 960.66492
-18.816734 -131.09427 956.83844 956.83844
19.658569 -114.76055 953.06873 953.06873
13.77652 -173.09781 983.16498 983.16498
49.203354 -171.59917 1000.4764 1000.4764
-8.4703598 -97.012138 950.40417 950.40417
-38.681229 -84.387733 959.11536 959.11536
-33.808746 -183.92598 1007.416 1007.416
-76.073997 -47.960007 1011.211 1011.211
-6.1952972 -29.551178 979.29938 979.29938
-69.692696 -132.53824 986.09235 986.09235
-88.348816 -126.60955 1011.4459 1011.4459
22.518852 -184.33258 1001.2054 1001.2054
-10.944199 -155.39659 967.46851 967.46851
-35.926201 -176.14372 996.04224 996.04224
-70.30011 -94.301331 979.1098 979.1098
46.699127 -72.397362 965.99237 965.99237
-24.649109 -69.902725 957.87738 957.87738
-4.3190536 -150.48553 963.78772 963.78772
-3.2122803 -68.795349 955.04761 955.04761
-77.157402 -158.39967 1024.7767 1024.7767
59.648621 -74.078857 974.03857 974.03857
84.610123 -128.42508 1004.9096 1004.9096
-4.6214294 -87.774834 950.85773 950.85773
-85.512978 -112.56664 999.70477 999.70477
21.250984 -135.26076 958.8678 958.8678
-17.107468 -128.77701 955.77039 955.77039
-19.70697 -139.03311 960.06641 960.06641
14.489639 -68.321991 956.26337 956.26337
-14.43795 -40.009949 971.30603 971.30603
-91.930313 -85.346588 1013.4747 1013.4747
40.184891 -37.164322 983.39032 983.39032
-16.312012 -105.96638 951.51996 951.51996
-17.443306 -11.580521 1006.6672 1006.6672
-86.03746 -92.420662 999.60052 999.60052
52.686859 -113.92347 966.1535 966.1535
34.309219 -120.06845 958.23871 958.23871
-93.516357 -103.83205 1014.7863 1014.7863
-47.624744 -81.018433 964.14209 964.14209
-86.000908 -85.460373 1001.0874 1001.0874
-45.288681 -72.055313 965.33582 965.33582
-86.994843 -92.250778 1001.2984 1001.2984
47.978165 -111.78763 963.05664 963.05664
12.313805 -51.394989 963.47876 963.47876
-68.398949 -60.898865 988.41522 988.41522
97.142715 -111.76644 1029.3883 1029.3883
-37.843304 -19.762009 1003.8508 1003.8508
65.163345 -89.071953 974.93793 974.93793
-9.89608 -192.79407 1014.0649 1014.0649
-1.5124588 -22.736328 986.5332 986.5332
-71.278351 -155.84573 1007.5659 1007.5659
12.790596 -34.838135 975.23145 975.23145
-20.107643 -194.68034 1024.874 1024.874
-59.611897 -160.88446 997.65973 997.65973
-23.989777 -71.507065 957.19568 957.19568
-67.071632 -106.44759 976.10938 976.10938
-55.997448 -85.138535 968.4928 968.4928
-61.175171 -66.368408 978.40033 978.40033
17.547607 -180.89038 993.88556 993.88556
47.80014 -42.541412 983.56464 983.56464
57.493774 -72.7052 972.86725 972.86725
-88.605133 -113.99448 1005.804 1005.804
4.5021515 -125.08824 953.30298 953.30298
-15.167488 -38.805801 972.37775 972.37775
-54.110233 -40.094238 990.9798 990.9798
58.737427 -79.773331 971.63678 971.63678
-45.910519 -121.49313 963.80096 963.80096
22.175873 -50.695328 965.87341 965.87341
75.75174 -152.57726 1011.3049 1011.3049
-27.693977 -7.5389557 1023.8466 1023.8466
18.129204 -58.734421 960.73364 960.73364
50.611481 -165.36122 993.72931 993.72931
75.716629 -81.132164 987.46204 987.46204
-2.7266617 -50.594635 963.09961 963.09961
85.137512 -106.4809 997.94617 997.94617
-28.16629 -82.964577 955.573 955.573
-64.399437 -25.092941 1034.4551 1034.4551
-34.563217 -43.301407 975.22931 975.22931
-63.358238 -103.63925 972.71814 972.71814
12.365654 -149.63963 964.07562 964.07562
-5.4573441 -111.968 950.86884 950.86884
10.296097 -45.426132 966.83942 966.83942
-7.1970673 -29.98056 978.96844 978.96844
-87.085907 -107.97333 1001.4977 1001.4977
-47.799389 -125.72351 966.01477 966.01477
50.699539 -133.55217 970.60345 970.60345
33.366287 -43.343765 974.6557 974.6557
-25.441345 -65.100601 959.80701 959.80701
-45.768112 -168.91937 993.82703 993.82703
-56.770687 -80.287338 970.0719 970.0719
68.571777 -160.8233 1010.0195 1010.0195
23.078331 -6.3389282 1023.6373 1023.6373
-70.159035 -97.670532 978.78003 978.78003
-32.728745 -155.69336 973.66467 973.66467
16.359833 -122.97767 954.06055 954.06055
6.9099579 -52.769196 962.12793 962.12793
77.054962 -154.07755 1016.2635 1016.2635
12.996498 -88.091591 951.56586 951.56586
-37.787777 -17.878693 1007.2429 1007.2429
-87.058998 -105.34187 1001.0899 1001.0899
-53.470005 -100.28514 965.49628 965.49628
-57.068516 -167.22408 1002.8395 1002.8395
-24.578621 -47.052765 968.80591 968.80591
10.462715 -16.109009 996.58807 996.58807
96.805984 -123.76744 1042.0182 1042.0182
-15.461639 -22.408478 988.84045 988.84045
23.023651 -73.213104 956.44586 956.44586
-22.615044 -140.35851 961.34479 961.34479
40.744476 -91.430161 959.08002 959.08002
-59.355633 -35.557907 1001.7908 1001.7908
71.236618 -75.005295 984.42096 984.42096
25.234344 -53.856445 964.94708 964.94708
64.086563 -132.99707 980.68835 980.68835
-45.715981 -88.527939 961.8045 961.8045
51.977341 -156.2014 985.65906 985.65906
96.504791 -75.335709 1041.1401 1041.1401
34.105545 -58.370941 965.71576 965.71576
5.0528183 -38.757111 971.10907 971.10907
-26.97168 -104.71033 953.82129 953.82129
24.216934 -4.8461151 1031.0454 1031.0454
-1.6088181 -149.35176 963.04132 963.04132
15.405167 -59.590637 959.83478 959.83478
87.823517 -63.501343 1019.0989 1019.0989
10.381546 -56.574615 960.52118 960.52118
-12.641106 -68.742767 955.85547 955.85547
-12.993759 -114.46069 951.90796 951.90796
15.674927 -136.19791 958.1087 958.1087
-24.015015 -96.158134 953.0025 953.0025
34.787384 -63.320038 963.71893 963.71893
56.447601 -117.65397 969.36499 969.36499
-34.635048 -48.889694 971.33521 971.33521
65.529221 -84.814026 976.0047 976.0047
-88.263901 -75.139359 1010.1072 1010.1072
67.994171 -74.134918 981.38666 981.38666
25.156021 -109.03303 953.63831 953.63831
21.274208 -167.66357 979.50854 979.50854
-33.944252 -96.329971 956.00891 956.00891
-92.904449 -106.72928 1013.6204 1013.6204
-22.144569 -182.76743 998.43286 998.43286
-42.627907 -41.461212 981.03571 981.03571
66.493851 -100.60579 975.31262 975.31262
-21.422638 -154.12756 968.69025 968.69025
-16.608284 -25.732315 985.12726 985.12726
97.980179 -105.55696 1030.7905 1030.7905
0.3841629 -62.79158 957.18091 957.18091
-62.831314 -71.040329 977.79498 977.79498
0.72016907 -183.21509 994.54974 994.54974
-46.446861 -118.24811 963.34149 963.34149
78.985245 -41.498779 1031.5897 1031.5897
-13.609108 -158.54413 970.07892 970.07892
-26.481018 -45.04158 970.7641 970.7641
66.439087 -168.78407 1020.7665 1020.7665
67.5271 -34.246841 1016.5842 1016.5842
-26.722374 -49.234802 968.09265 968.09265
41.917435 -27.466278 995.39423 995.39423
-24.699295 -79.163864 955.36493 955.36493
-23.811813 -118.02838 954.56427 954.56427
-10.866722 -3.3175659 1026.8824 1026.8824
18.819489 -160.96597 973.00012 973.00012
34.639847 -28.661041 989.08337 989.08337
-24.984337 -176.65808 990.84497 990.84497
-62.664265 -67.54245 979.15015 979.15015
17.683289 -85.364304 952.67017 952.67017
29.731949 -13.503128 1009.5735 1009.5735
-76.259933 -50.050613 1008.8967 1008.8967
-16.186646 -61.689835 959.05865 959.05865
-12.656578 -24.630981 985.5072 985.5072
44.797256 -154.88292 979.42328 979.42328
17.427193 -132.38541 957.00818 957.00818
-46.226192 -149.24548 976.25708 976.25708
-82.671234 -60.726959 1009.7123 1009.7123
36.590637 -184.79671 1011.651 1011.651
44.000702 -145.09496 972.34448 972.34448
-74.730309 -158.83437 1019.1147 1019.1147
24.742088 -36.33754 976.95947 976.95947
-36.847187 -26.664688 992.8667 992.8667
26.079559 -102.32976 953.48871 953.48871
8.7480927 -156.37668 967.87122 967.87122
-71.416351 -54.206543 997.05981 997.05981
39.873749 -163.45395 983.79065 983.79065
27.734467 -81.630234 955.69543 955.69543
53.693954 -90.147713 966.21521 966.21521
29.068024 -147.77473 967.09869 967.09869
31.589676 -58.22023 964.81464 964.81464
24.523102 -169.57195 982.48438 982.48438
-66.285355 -72.579872 980.32654 980.32654
-70.86998 -76.997375 983.30426 983.30426
-30.366653 -153.84515 971.39612 971.39612
-30.288727 -115.8231 956.02008 956.02008
15.544617 -6.3753052 1018.4916 1018.4916
87.244919 -53.751602 1034.2073 1034.2073
39.457184 -181.42117 1007.4122 1007.4122
28.993195 -136.05052 961.34473 961.34473
-66.917587 -52.838943 992.57288 992.57288
91.571884 -78.509308 1016.048 1016.048
89.003052 -110.0936 1005.5413 1005.5413
33.507507 -162.75702 979.72339 979.72339
-20.765617 -162.92412 975.10443 975.10443
-63.53281 -152.91992 993.75885 993.75885
-37.788086 -78.428604 959.96259 959.96259
27.141914 -139.99168 962.45581 962.45581
-28.692383 -156.04022 972.30676 972.30676
-2.9837875 -89.989784 950.54706 950.54706
-3.5491486 -93.623543 950.2666 950.2666
-25.006607 -11.757965 1010.1501 1010.1501
59.589844 -168.34796 1007.8383 1007.8383
20.35788 -179.59535 992.99005 992.99005
83.73793 -84.366859 997.62097 997.62097
3.1538849 -127.5504 953.92175 953.92175
-47.146385 -186.83549 1034.6112 1034.6112
-9.0485535 -164.43799 974.06665 974.06665
61.446548 -56.177872 984.39557 984.39557
18.533386 -149.68472 965.21826 965.21826
-66.492584 -102.25049 975.34296 975.34296
45.697388 -22.019012 1007.2131 1007.2131
-87.903519 -60.773941 1022.9023 1022.9023
51.647049 -24.281387 1010.0091 1010.0091
32.613403 -72.983932 959.41028 959.41028
-70.060699 -75.470139 982.99414 982.99414
85.309723 -136.40707 1012.6265 1012.6265
-4.1851425 -11.880417 1002.9105 1002.9105
-30.411636 -152.11151 970.25342 970.25342
-6.4031143 -179.04053 989.07715 989.07715
87.679916 -90.648064 1002.8325 1002.8325
6.732872 -36.802032 972.79456 972.79456
-87.463425 -143.67384 1028.9585 1028.9585
-26.346298 -101.89694 953.5517 953.5517
44.199554 -162.88873 986.03589 986.03589
-87.030777 -111.57844 1002.1295 1002.1295
15.21698 -197.56616 1034.2112 1034.2112
-6.8331909 -173.95543 983.03809 983.03809
-92.431305 -72.734917 1023.2966 1023.2966
-24.264954 -109.17934 953.42383 953.42383
-22.427048 -22.581482 990.81049 990.81049
34.91214 -15.877167 1008.7145 1008.7145
-25.224258 -30.094833 983.0896 983.0896
-61.42334 -54.791672 985.32092 985.32092
-46.50581 -44.742462 980.8349 980.8349
-94.416809 -108.42974 1018.1503 1018.1503
-52.66238 -111.01689 965.70703 965.70703
62.919968 -149.98032 990.4765 990.4765
-33.466454 -77.639877 958.45752 958.45752
-56.549477 -43.481567 989.93481 989.93481
-36.015129 -124.5101 959.98798 959.98798
-3.3641052 -116.21629 951.38098 951.38098
-22.642357 -180.01234 994.4541 994.4541
64.585861 -116.46454 975.45081 975.45081
-43.280155 -167.01758 989.70514 989.70514
47.148087 -60.106705 971.3515 971.3515
31.807022 -171.87848 988.17932 988.17932
-22.941788 -17.505127 998.34473 998.34473
-28.437462 -129.18442 958.67871 958.67871
-80.064606 -50.944046 1015.6027 1015.6027
-23.071724 -103.15183 952.74896 952.74896
11.160889 -168.17488 977.69769 977.69769
41.642075 -39.939636 981.74542 981.74542
-80.735275 -70.318405 999.00177 999.00177
-60.661137 -76.754036 973.97467 973.97467
-14.519989 -57.852203 960.48615 960.48615
-58.236206 -23.439438 1022.6683 1022.6683
-14.383865 -47.061569 966.39001 966.39001
31.059128 -177.8204 995.41687 995.41687
89.849106 -117.54018 1009.7572 1009.7572
-33.115555 -134.64647 962.23334 962.23334
-17.107704 -87.516998 952.26819 952.26819
-14.382187 -133.59659 956.91711 956.91711
55.301743 -60.215714 976.79529 976.79529
56.89241 -168.50664 1004.5017 1004.5017
-28.476799 -101.34812 954.14984 954.14984
90.154282 -88.187943 1008.3745 1008.3745
14.109825 -164.58536 974.96906 974.96906
-62.862701 -97.96109 972.25604 972.25604
14.400658 -138.2462 958.73199 958.73199
-46.243996 -132.70186 967.58594 967.58594
-74.35305 -131.7175 991.13043 991.13043
-87.959274 -91.844872 1003.1315 1003.1315
-63.433552 -109.71397 973.30695 973.30695
-8.7310638 -121.55501 952.74182 952.74182
43.3396 -61.139877 968.68842 968.68842
27.330635 -16.681091 1001.9272 1001.9272
12.276718 -170.65961 980.3114 980.3114
-27.157516 -172.85248 987.11133 987.11133
19.106743 -129.68201 956.43768 956.43768
-53.265781 -184.19252 1041.3759 1041.3759
-92.166466 -138.73322 1047.7458 1047.7458
-34.075104 -60.501022 964.68457 964.68457
46.223999 -111.80917 962.11438 962.11438
-25.636665 -29.604614 983.76367 983.76367
36.831131 -81.492867 958.89044 958.89044
-34.534714 -189.43349 1021.557 1021.557
-33.366096 -17.226654 1004.886 1004.886
-88.709763 -60.009048 1026.9501 1026.9501
19.052147 -22.374771 989.90558 989.90558
-49.011795 -83.283386 964.45239 964.45239
11.002266 -39.43898 971.18811 971.18811
-76.798279 -58.228729 1001.4492 1001.4492
63.317841 -49.781219 991.10242 991.10242
-68.96656 -80.02845 980.39575 980.39575
-89.387497 -70.513763 1016.2296 1016.2296
-7.0430145 -82.666931 951.76581 951.76581
6.2939529 -42.451553 968.4613 968.4613
53.925659 -33.073349 998.88397 998.88397
-37.069668 -148.73709 970.9397 970.9397
-66.782623 -152.11661 996.85925 996.85925
6.1388245 -178.89282 988.85889 988.85889
-61.972397 -97.822701 971.54822 971.54822
-46.216976 -102.50954 961.35638 961.35638
-33.810837 -32.944504 983.9668 983.9668
-46.690674 -50.864853 976.47644 976.47644
-77.25943 -142.07295 1002.4517 1002.4517
-21.340446 -94.812057 952.44147 952.44147
-12.605736 -152.67555 965.93823 965.93823
-38.458313 -11.80162 1022.7603 1022.7603
-76.307587 -56.889999 1001.8474 1001.8474
23.512604 -150.21829 966.78174 966.78174
42.491058 -121.2226 961.99939 961.99939
-62.412041 -42.88501 996.68384 996.68384
94.300446 -114.61972 1020.1053 1020.1053
8.2572784 -96.724007 950.39539 950.39539
8.563652 -139.08017 958.35175 958.35175
37.052887 -70.815781 961.82196 961.82196
89.358856 -134.60696 1021.4106 1021.4106
-35.158005 -101.78145 956.40118 956.40118
31.910736 -59.320267 964.40289 964.40289
-31.181129 -68.07312 960.51025 960.51025
66.813385 -51.24324 993.79724 993.79724
-37.131458 -94.630943 957.30463 957.30463
83.698914 -66.150146 1007.0037 1007.0037
7.4832458 -10.76474 1005.4908 1005.4908
7.1956024 -163.64264 973.20264 973.20264
8.5820923 -68.20874 955.57721 955.57721
72.06572 -61.289597 992.48444 992.48444
38.039215 -11.497269 1023.1619 1023.1619
-45.309032 -35.628967 988.32776 988.32776
4.8911133 -187.14671 1001.1991 1001.1991
8.3933334 -139.5778 958.54974 958.54974
-1.6956177 -114.20158 951.02808 951.02808
-71.054077 -118.50964 982.11249 982.11249
-21.752419 -12.258911 1007.241 1007.241
66.139526 -100.11141 974.99634 974.99634
7.7563858 -5.6525421 1017.7758 1017.7758
-85.999115 -50.71637 1036.7607 1036.7607
14.084183 -48.038528 965.72876 965.72876
-56.558056 -130.19022 973.25537 973.25537
-37.397808 -128.15775 961.63403 961.63403
33.842712 -75.506317 959.14447 959.14447
-42.466576 -26.053513 997.76489 997.76489
64.055115 -45.526566 995.87433 995.87433
-36.6553 -61.082474 965.49072 965.49072
-25.442543 -92.966858 953.54688 953.54688
43.771362 -25.705597 999.35999 999.35999
-49.287384 -34.36676 992.87708 992.87708
78.54155 -107.03236 988.50391 988.50391
5.3879013 -50.796066 963.10962 963.10962
-41.907383 -123.73878 962.36304 962.36304
14.502922 -122.77588 953.71436 953.71436
-49.676079 -82.681534 964.95673 964.95673
-47.4828 -129.38373 967.0423 967.0423
50.962891 -18.227463 1023.2411 1023.2411
-81.489334 -56.565811 1011.6208 1011.6208
-51.340412 -151.978 981.7179 981.7179
-94.936096 -75.005791 1030.9625 1030.9625
33.332382 -139.21613 964.26172 964.26172
-23.429039 -185.24385 1003.2607 1003.2607
-18.134178 -35.090561 976.12231 976.12231
64.00354 -75.515854 977.1709 977.1709
-43.453026 -25.709503 999.08087 999.08087
-76.357742 -139.16809 998.66431 998.66431
-20.62674 -26.401352 985.51917 985.51917
-2.9025726 -93.759407 950.23712 950.23712
69.118073 -114.23067 979.14679 979.14679
-32.673347 -131.75641 960.98328 960.98328
-77.873535 -58.542603 1002.915 1002.915
-55.49234 -134.76761 974.42346 974.42346
79.873184 -49.062775 1017.9739 1017.9739
-49.147266 -150.78925 979.25397 979.25397
-41.862343 -136.71515 966.93652 966.93652
-67.049316 -66.515228 983.79456 983.79456
-22.21273 -50.530685 965.97986 965.97986
34.3013 -63.001709 963.66028 963.66028
-14.289307 -97.287704 951.06335 951.06335
-8.744278 -69.613937 955.13049 955.13049
22.027946 -58.473999 961.737 961.737
-31.651176 -102.06989 955.1637 955.1637
61.832031 -144.75902 985.39789 985.39789
69.177963 -146.12318 994.43866 994.43866
17.770729 -148.22498 964.21802 964.21802
81.078598 -137.61975 1005.1556 1005.1556
25.344406 -166.78088 980.01447 980.01447
97.304016 -85.183479 1032.3252 1032.3252
-29.709023 -7.8018494 1025.1631 1025.1631
22.638031 -145.85211 964.06335 964.06335
-51.992405 -107.79594 964.93524 964.93524
29.529984 -128.94086 958.9483 958.9483
-69.444016 -69.642639 984.76227 984.76227
13.5196 -60.835632 958.98694 958.98694
-84.534706 -135.35614 1009.9522 1009.9522
26.37056 -112.4294 954.34381 954.34381
58.4384 -117.14394 970.68396 970.68396
61.223251 -62.054611 980.63245 980.63245
-62.214825 -116.52045 973.47296 973.47296
71.015579 -153.87006 1004.67 1004.67
-42.030643 -119.34745 961.34845 961.34845
18.49781 -75.578773 954.80841 954.80841
-10.262695 -124.2427 953.52734 953.52734
-44.713066 -124.44473 963.95819 963.95819
8.7121811 -140.44231 958.95868 958.95868
48.360046 -44.617081 982.22064 982.22064
-18.9515 -156.92683 969.9989 969.9989
54.043991 -174.20981 1010.3496 1010.3496
11.997879 -129.80331 955.30145 955.30145
2.6346359 -19.280838 991.02991 991.02991
6.1257019 -99.747406 950.18811 950.18811
-24.217339 -52.640472 965.32062 965.32062
83.173996 -148.03145 1022.16 1022.16
-46.769203 -53.051682 975.11011 975.11011
53.746719 -50.766541 981.53571 981.53571
-11.015663 -169.36591 978.81696 978.81696
98.088211 -101.33685 1030.5857 1030.5857
-1.3536987 -86.406647 950.93744 950.93744
-4.3998718 -191.10179 1008.9987 1008.9987
-3.3755875 -160.48982 970.44128 970.44128
57.752518 -89.783134 969.00458 969.00458
-31.612282 -125.04675 958.49414 958.49414
-13.50251 -85.372314 952.00146 952.00146
54.615768 -111.61249 967.04059 967.04059
-0.78089905 -97.705223 950.02936 950.02936
53.766785 -132.46725 972.18604 972.18604
-22.660866 -192.45493 1019.3639 1019.3639
-27.627129 -48.22142 969.03259 969.03259
0.23449707 -77.040924 952.67157 952.67157
54.539444 -33.612137 998.83264 998.83264
-36.271358 -100.99842 956.81531 956.81531
11.48217 -107.49483 950.94452 950.94452
-70.39624 -159.09775 1010.6068 1010.6068
-21.658127 -50.38089 965.92346 965.92346
72.84346 -80.68721 984.26685 984.26685
14.279198 -139.34793 959.18237 959.18237
53.72644 -145.43274 978.94135 978.94135
23.044846 -101.80744 952.70831 952.70831
-0.72065735 -130.95755 954.91522 954.91522
-24.424522 -127.21794 956.92676 956.92676
22.612915 -190.27159 1013.3981 1013.3981
49.022415 -24.078278 1007.19 1007.19
-85.223816 -105.39223 997.96326 997.96326
-29.431694 -13.675095 1008.9904 1008.9904
57.548615 -104.78801 968.35913 968.35913
87.68428 -143.34804 1029.2054 1029.2054
49.595871 -92.594543 963.48175 963.48175
40.589172 -57.785828 968.94147 968.94147
-14.588135 -135.65981 957.72021 957.72021
-70.471939 -92.635056 979.43469 979.43469
-51.539837 -114.49914 965.54041 965.54041
-54.7626 -149.04865 982.21143 982.21143
-41.751366 -64.831726 966.21448 966.21448
2.3177948 -113.25535 950.90955 950.90955
-15.323257 -154.08847 967.29791 967.29791
72.426254 -62.739136 991.98218 991.98218
26.854233 -135.37038 960.4021 960.4021
11.976265 -170.47215 980.0697 980.0697
44.50145 -41.856445 981.8902 981.8902
23.224129 -79.243156 954.97479 954.97479
-41.032303 -91.36261 959.21594 959.21594
73.120697 -138.41026 993.6261 993.6261
-67.86319 -105.64481 976.76941 976.76941
-37.839527 -121.59389 959.98956 959.98956
-15.001976 -65.771545 957.24573 957.24573
-59.755562 -171.77432 1014.2548 1014.2548
-59.060421 -138.85254 979.27271 979.27271
-1.8662872 -57.938156 959.29541 959.29541
46.3965 -182.85901 1018.6671 1018.6671
-16.275986 -61.429626 959.18469 959.18469
39.58017 -68.532837 963.72583 963.72583
-31.040924 -157.97916 974.66821 974.66821
55.111176 -150.41682 983.51013 983.51013
-36.841179 -21.104645 1000.8243 1000.8243
-81.596329 -74.465027 998.13477 998.13477
12.308037 -80.268288 952.7417 952.7417
94.999847 -75.729836 1030.3534 1030.3534
-64.029449 -140.21223 984.55377 984.55377
-24.74704 -23.168518 990.97028 990.97028
32.984756 -42.910309 974.81506 974.81506
9.0370407 -99.796425 950.40936 950.40936
-33.268547 -142.40457 965.76782 965.76782
8.2119141 -101.35125 950.34692 950.34692
23.376167 -91.679588 953.12726 953.12726
-69.8937 -81.460297 980.92651 980.92651
26.004601 -80.643555 955.40039 955.40039
83.651779 -95.467201 995.39386 995.39386
60.753326 -37.58992 1000.8674 1000.8674
-49.910141 -138.05298 972.14789 972.14789
-63.379414 -160.42558 1001.7113 1001.7113
51.506409 -157.34677 986.29413 986.29413
39.348114 -191.30795 1039.2957 1039.2957
22.990623 -162.3819 975.30109 975.30109
-43.916958 -34.047516 988.9953 988.9953
62.939636 -177.6825 1047.9919 1047.9919
17.42247 -116.7561 952.96552 952.96552
14.027443 -190.9735 1010.9225 1010.9225
-26.57975 -64.064972 960.54504 960.54504
-30.894562 -68.536682 960.24707 960.24707
15.02359 -177.56407 988.69659 988.69659
-55.927361 -152.04825 985.47784 985.47784
68.014008 -121.47038 979.90637 979.90637
-47.382336 -168.39545 994.52948 994.52948
-10.683449 -39.53511 971.07056 971.07056
-76.170166 -90.699028 985.87823 985.87823
-90.740791 -64.822647 1027.0073 1027.0073
-50.827747 -139.55292 973.50092 973.50092
-15.205116 -104.88131 951.28333 951.28333
35.023636 -161.64011 979.47455 979.47455
-11.602142 -163.20621 973.38171 973.38171
-46.618427 -23.28302 1005.9407 1005.9407
72.455139 -54.472122 998.2558 998.2558
70.918625 -164.21539 1020.8979 1020.8979
-51.47126 -162.58359 991.3996 991.3996
-21.973328 -195.2795 1029.0479 1029.0479
-47.907936 -178.29871 1010.3245 1010.3245
77.073181 -153.48611 1015.374 1015.374
-23.480453 -171.54666 984.19922 984.19922
-42.473667 -61.334747 968.14044 968.14044
25.374626 -108.63569 953.65918 953.65918
42.050964 -162.21387 983.961 983.961
15.762413 -142.41336 960.82233 960.82233
13.42865 -120.33565 953.01477 953.01477
43.657974 -173.72055 998.43195 998.43195
-61.09869 -164.09882 1003.5426 1003.5426
-78.997269 -91.526672 989.27411 989.27411
47.791367 -122.017 964.96332 964.96332
-34.02404 -83.005615 957.51459 957.51459
17.02739 -188.60417 1006.8796 1006.8796
8.7006531 -5.2017059 1019.3801 1019.3801
-68.943611 -90.850845 978.14551 978.14551
36.803131 -47.260681 973.42261 973.42261
58.768311 -125.00635 973.05219 973.05219
15.728226 -90.011703 951.75104 951.75104
-11.580177 -50.782623 963.724 963.724
55.517349 -114.57809 968.11407 968.11407
-19.467522 -45.926285 968.16449 968.16449
11.894699 -167.20511 976.91107 976.91107
12.606705 -192.81956 1014.9915 1014.9915
-87.595192 -144.95204 1032.4958 1032.4958
43.479782 -135.78546 967.36279 967.36279
69.655685 -96.827354 978.32001 978.32001
61.460785 -38.72319 1000.3238 1000.3238
-48.70681 -178.67279 1012.0759 1012.0759
33.783615 -55.365509 967.13611 967.13611
-19.045494 -94.756874 951.97052 951.97052
21.763138 -50.95015 965.61707 965.61707
-66.562332 -164.77997 1012.9458 1012.9458
40.539581 -8.7307739 1044.855 1044.855
-3.0233765 -195.18166 1019.4826 1019.4826
68.662704 -156.3847 1004.1067 1004.1067
5.6149368 -76.064705 953.06921 953.06921
-11.19751 -116.06958 951.93683 951.93683
-0.0017547607 -156.46915 967.46979 967.46979
-19.634468 -51.750961 964.63892 964.63892
39.033157 -16.182785 1011.9069 1011.9069
3.4284973 -37.712555 971.84296 971.84296
16.524994 -91.154686 951.77228 951.77228
-41.376339 -169.2258 990.87482 990.87482
53.821487 -120.10194 968.15161 968.15161
10.197975 -192.79567 1014.1536 1014.1536
-90.919395 -105.78493 1008.7665 1008.7665
45.020386 -111.60751 961.46509 961.46509
-1.8267365 -60.564178 958.1225 958.1225
11.999908 -148.69757 963.48669 963.48669
64.024719 -174.76443 1032.3616 1032.3616
19.924774 -78.914322 954.30048 954.30048
1.3761902 -69.775436 954.68695 954.68695
-60.671841 -156.0787 993.66077 993.66077
-87.894531 -142.86145 1029.0847 1029.0847
-88.640152 -77.345825 1009.6303 1009.6303
11.64032 -101.38727 950.68945 950.68945
-12.826279 -85.714027 951.86029 951.86029
-69.109482 -161.62895 1012.2408 1012.2408
63.694778 -23.565475 1039.9631 1039.9631
54.349762 -34.647446 997.32031 997.32031
-36.209827 -99.395813 956.78796 956.78796
40.548569 -54.68309 970.61365 970.61365
-0.061820984 -62.841476 957.16016 957.16016
-25.144249 -149.89647 967.06561 967.06561
-31.528305 -102.01936 955.1217 955.1217
-13.169769 -33.212723 976.74689 976.74689
27.605072 -99.524475 953.88684 953.88684
-50.194122 -87.613464 964.40137 964.40137
-86.088554 -77.080452 1004.5747 1004.5747
-41.050201 -111.25817 959.51172 959.51172
29.976624 -160.59612 976.31476 976.31476
-19.700615 -132.53622 957.51605 957.51605
39.263794 -186.57082 1018.9541 1018.9541
-46.599316 -57.330658 972.48981 972.48981
-68.977554 -142.41415 991.32178 991.32178
-22.325233 -58.513229 961.79321 961.79321
-79.204506 -102.78256 989.01721 989.01721
23.044357 -175.60136 988.73505 988.73505
66.805038 -123.23116 979.30774 979.30774
45.604172 -37.015335 987.12561 987.12561
-7.6364365 -47.354843 965.32312 965.32312
1.6633606 -111.6402 950.69373 950.69373
-96.789246 -114.63387 1029.5625 1029.5625
-63.909641 -47.453415 993.83582 993.83582
-32.312889 -112.30782 956.16827 956.16827
62.195938 -108.16435 972.12183 972.12183
87.774414 -94.032494 1002.4601 1002.4601
33.364761 -107.50219 956.02917 956.02917
8.0040665 -198.12979 1032.4935 1032.4935
-74.967453 -112.04105 984.92395 984.92395
-7.0816498 -50.89209 963.17682 963.17682
24.581955 -113.69925 954.04138 954.04138
-49.888496 -58.041824 974.16699 974.16699
-41.052292 -111.18527 959.5036 959.5036
-51.445469 -26.999527 1005.0078 1005.0078
63.353241 -29.50943 1018.1025 1018.1025
-52.94495 -128.29544 970.02374 970.02374
-72.163116 -155.07762 1008.0603 1008.0603
75.701096 -104.35944 984.80536 984.80536
-91.87159 -85.936417 1013.097 1013.097
33.652908 -163.26181 980.24738 980.24738
87.424927 -113.3803 1003.3326 1003.3326
30.284302 -187.74294 1012.7974 1012.7974
5.2801971 -134.43144 956.26318 956.26318
-65.556152 -87.532822 975.52209 975.52209
-6.1378708 -25.464874 983.61597 983.61597
8.1209412 -131.77246 955.53009 955.53009
-15.90477 -195.45084 1024.7775 1024.7775
-31.217995 -89.979866 955.52759 955.52759
-53.421082 -183.79419 1038.8322 1038.8322
69.538605 -164.05115 1017.4142 1017.4142
-26.044823 -162.26189 976.20892 976.20892
-11.279678 -20.140823 990.87909 990.87909
60.498993 -71.290161 975.73279 975.73279
-29.538383 -17.454254 1001.8992 1001.8992
-74.647842 -163.9024 1031.4479 1031.4479
28.565277 -167.03127 981.51031 981.51031
-67.5952 -131.3533 983.30774 983.30774
11.457588 -47.9879 965.36273 965.36273
-15.858421 -182.63837 995.96844 995.96844
64.621475 -48.924545 993.29584 993.29584
-75.163033 -125.48433 989.16357 989.16357
67.74823 -32.877167 1019.9217 1019.9217
53.272964 -33.549744 997.5943 997.5943
5.0336685 -188.46645 1003.6497 1003.6497
-20.005775 -47.201187 967.46484 967.46484
-6.794754 -124.00928 953.16309 953.16309
-33.640854 -138.52977 964.07123 964.07123
-55.287521 -76.538933 970.04456 970.04456
19.904366 -139.64467 960.37793 960.37793
78.854828 -76.288818 993.25763 993.25763
-38.076927 -36.417145 982.86304 982.86304
37.516251 -84.732437 958.57007 958.57007
19.29718 -7.0627594 1018.5311 1018.5311
79.774933 -103.76181 989.81854 989.81854
-67.533585 -116.89118 978.20929 978.20929
90.957474 -139.54596 1037.2385 1037.2385
-66.471558 -38.910629 1006.9928 1006.9928
81.337112 -126.34802 998.13428 998.13428
14.854111 -181.33899 993.75659 993.75659
16.044167 -150.45393 965.16498 965.16498
9.085968 -168.29892 977.52448 977.52448
34.795242 -177.40979 997.11316 997.11316
44.48468 -29.070923 995.31744 995.31744
56.066711 -93.758133 967.43146 967.43146
37.027435 -33.055603 985.59955 985.59955
35.384552 -146.48016 968.83643 968.83643
49.788361 -122.51224 966.24847 966.24847
44.101654 -37.777145 985.32111 985.32111
11.598206 -45.045731 967.26239 967.26239
-39.893501 -93.49102 958.53339 958.53339
-1.9907227 -72.216019 953.95789 953.95789
-6.9679108 -47.417694 965.2265 965.2265
30.730377 -61.125595 963.14136 963.14136
57.757217 -127.14842 973.01257 973.01257
-6.3630676 -40.184265 970.11517 970.11517
43.228256 -53.266769 972.8811 972.8811
-57.778294 -171.68454 1010.9744 1010.9744
13.045441 -130.10553 955.53589 955.53589
-48.450493 -95.73233 962.62531 962.62531
2.863121 -53.436539 961.54865 961.54865
62.501205 -55.881516 985.60156 985.60156
-81.619949 -81.508926 995.26184 995.26184
48.517715 -46.770966 980.62634 980.62634
-47.240139 -57.941086 972.54407 972.54407
66.591949 -25.559204 1045.0929 1045.0929
62.09259 -120.23186 974.26904 974.26904
-33.460312 -23.948914 994.35254 994.35254
-35.267487 -115.87317 957.78149 957.78149
-42.779625 -24.738358 999.94415 999.94415
22.529854 -190.04984 1012.8055 1012.8055
56.894775 -45.253677 988.63367 988.63367
-20.53569 -64.369644 958.8476 958.8476
3.6824722 -177.06735 986.38348 986.38348
-9.6956558 -124.19498 953.45679 953.45679
-65.413589 -83.218216 976.2475 976.2475
44.815857 -39.342224 984.33289 984.33289
-69.853088 -83.068954 980.47388 980.47388
28.393143 -111.8902 954.85559 954.85559
43.414215 -130.79912 965.34412 965.34412
79.561615 -102.46875 989.47021 989.47021
40.173584 -80.473793 960.5304 960.5304
96.374924 -121.00948 1033.5538 1033.5538
-69.749596 -67.666748 986.05035 986.05035
14.355827 -47.505341 966.1059 966.1059
-86.667892 -91.601112 1000.8254 1000.8254
6.4672012 -22.272018 987.41779 987.41779
-8.156517 -183.00252 994.82709 994.82709
-12.86441 -152.77638 966.04071 966.04071
81.378769 -64.79071 1003.7636 1003.7636
73.535233 -94.251297 982.47577 982.47577
18.219223 -169.46013 980.40582 980.40582
-91.409431 -83.580925 1012.9227 1012.9227
-42.617661 -158.54691 981.03625 981.03625
71.601669 -131.86516 987.88873 987.88873
37.032349 -151.61699 972.77118 972.77118
-54.781296 -125.07536 970.18622 970.18622
59.404449 -173.81082 1018.0145 1018.0145
-25.380638 -121.03333 955.58911 955.58911
-17.865211 -37.245041 974.21973 974.21973
23.35508 -40.176117 973.34723 973.34723
-1.085144 -139.56079 958.16443 958.16443
46.614807 -111.91636 962.33551 962.33551
-20.58963 -151.07596 966.52954 966.52954
-61.881001 -72.261917 976.50616 976.50616
66.884827 -136.35037 985.1535 985.1535
-33.953949 -75.748955 959.12085 959.12085
-28.882027 -57.124054 964.39929 964.39929
17.421051 -32.281097 978.51111 978.51111
55.467117 -103.1209 966.85156 966.85156
49.074951 -76.189781 966.1864 966.1864
50.895996 -71.466888 968.7876 968.7876
24.404297 -99.21051 953.02679 953.02679
89.71817 -131.84871 1019.4008 1019.4008
-48.958588 -98.246956 962.82214 962.82214
-24.167023 -66.003189 959.1145 959.1145
70.23349 -125.59055 983.57422 983.57422
-72.161125 -91.869354 981.24927 981.24927
-21.541939 -19.676193 994.46594 994.46594
0.37032318 -31.656601 976.99969 976.99969
-91.880272 -109.64847 1011.7257 1011.7257
-70.667755 -133.07976 987.45563 987.45563
-16.751289 -65.346832 957.70398 957.70398
-29.166824 -154.83955 971.62958 971.62958
5.9042664 -156.19547 967.4942 967.4942
4.6642151 -133.76413 955.98816 955.98816
-10.143517 -27.646927 981.72009 981.72009
53.134949 -31.524261 1000.1226 1000.1226
91.698807 -94.758034 1010.4545 1010.4545
-49.354935 -21.054306 1013.508 1013.508
-20.952171 -71.051865 956.60291 956.60291
-32.320724 -58.771774 964.82019 964.82019
81.63179 -114.51057 994.0921 994.0921
-52.061378 -158.03496 987.37769 987.37769
-90.622498 -102.64101 1007.803 1007.803
-31.198212 -177.09572 994.47595 994.47595
42.67485 -153.3429 976.96991 976.96991
12.688103 -65.822922 956.88214 956.88214
20.302704 -180.94142 994.89746 994.89746
-5.1614914 -133.37088 955.87378 955.87378
46.410187 -13.032257 1033.1862 1033.1862
24.000397 -58.195572 962.38513 962.38513
-59.419662 -53.263092 984.54034 984.54034
41.707672 -33.052307 988.5307 988.5307
-66.98806 -41.668701 1004.0646 1004.0646
-9.1830978 -193.9274 1016.9347 1016.9347
-10.817543 -148.01595 962.95148 962.95148
58.481415 -90.419579 969.45099 969.45099
24.543068 -113.05811 953.94208 953.94208
-2.1822891 -183.73238 995.37286 995.37286
25.179382 -184.71475 1003.2089 1003.2089
83.8405 -126.44788 1002.342 1002.342
53.502472 -109.65224 966.06958 966.06958
56.642166 -137.5751 976.65302 976.65302
-37.935226 -40.602341 979.0575 979.0575
14.608154 -47.537506 966.12933 966.12933
-4.2838211 -143.56168 960.08875 960.08875
-57.655823 -56.735046 980.68945 980.68945
-45.907421 -120.4425 963.54419 963.54419
-89.615509 -86.029099 1007.8826 1007.8826
24.311447 -21.313049 993.27863 993.27863
-45.604897 -21.886719 1007.356 1007.356
-32.942635 -126.67841 959.42932 959.42932
73.273056 -142.14774 996.57129 996.57129
-91.38369 -78.916885 1015.2938 1015.2938
61.775101 -106.98241 971.67322 971.67322
7.9849854 -51.323303 963.01251 963.01251
97.803452 -108.71262 1031.064 1031.064
-82.766159 -46.171494 1034.1174 1034.1174
31.136993 -173.52017 989.78979 989.78979
-68.140869 -129.62604 983.07379 983.07379
78.13298 -87.451279 988.86273 988.86273
81.153458 -62.889847 1004.8674 1004.8674
47.555557 -100.06859 962.03143 962.03143
2.6542892 -130.3287 954.74707 954.74707
72.341095 -125.35131 985.78101 985.78101
69.790909 -50.683044 998.06671 998.06671
52.383148 -148.46577 979.94946 979.94946
63.39183 -142.17741 985.17297 985.17297
71.431381 -98.485634 980.03381 980.03381
-11.494133 -162.49603 972.78516 972.78516
81.732758 -69.052444 1001.3995 1001.3995
-47.196747 -167.30605 993.05823 993.05823
12.022591 -187.08727 1002.3422 1002.3422
62.256439 -138.29546 981.75342 981.75342
15.490761 -21.782715 989.65027 989.65027
-44.942451 -110.03486 961.23358 961.23358
-31.326302 -52.79985 967.59363 967.59363
-86.022766 -103.28991 999.11523 999.11523
64.06044 -56.684494 986.59631 986.59631
4.1504822 -54.022308 961.29358 961.29358
-92.358643 -79.737663 1017.4528 1017.4528
-19.562668 -58.025421 961.36908 961.36908
-84.76754 -132.85657 1008.3478 1008.3478
30.001022 -71.831482 958.86017 958.86017
1.9085312 -98.014709 950.0379 950.0379
-54.737122 -120.73569 968.92053 968.92053
-11.963097 -138.87753 958.64673 958.64673
-31.733673 -38.471268 977.83911 977.83911
-17.317818 -166.35558 977.2193 977.2193
43.149765 -119.98222 962.02948 962.02948
-20.99778 -95.136787 952.3504 952.3504
-43.5322 -107.72932 960.30493 960.30493
32.485062 -38.46608 978.17871 978.17871
-25.925568 -105.14229 953.55615 953.55615
-89.35672 -110.79852 1006.4252 1006.4252
2.6789932 -145.34885 960.91406 960.91406
-0.66786957 -118.25379 951.68237 951.68237
-55.472813 -101.24277 966.80609 966.80609
-88.056404 -67.829651 1015.1986 1015.1986
42.442749 -15.067413 1018.6142 1018.6142
13.423141 -100.30545 950.90546 950.90546
-21.459969 -179.54575 993.32599 993.32599
-69.544342 -56.119049 993.09619 993.09619
-45.29417 -144.53886 972.76837 972.76837
9.9808121 -33.000168 976.43774 976.43774
51.759842 -54.738342 977.3894 977.3894
-32.322784 -133.83679 961.62402 961.62402
-70.140526 -169.98105 1036.4738 1036.4738
-26.386032 -79.679527 955.70868 955.70868
-89.889236 -104.75054 1006.4413 1006.4413
49.892136 -170.88737 1000.1426 1000.1426
-18.181 -66.150162 957.67645 957.67645
-86.831993 -138.94028 1019.2777 1019.2777
33.320267 -117.77975 957.40607 957.40607
-0.97984314 -13.249405 1000.267 1000.267
78.872253 -117.95684 991.20612 991.20612
-89.135223 -113.48486 1006.721 1006.721
-58.61013 -168.1132 1006.1201 1006.1201
7.1817551 -126.24243 953.77234 953.77234
24.763931 -39.476364 974.34528 974.34528
39.27446 -9.6094971 1033.0568 1033.0568
37.941635 -163.86075 983.05048 983.05048
58.557266 -97.089958 968.99023 968.99023
80.193375 -151.19301 1019.2056 1019.2056
-22.628517 -138.22641 960.4082 960.4082
-22.927589 -181.27654 996.44208 996.44208
-46.598427 -187.50963 1036.9366 1036.9366
3.2562943 -156.24394 967.38031 967.38031
30.366196 -51.569931 967.94867 967.94867
24.433388 -161.57213 975.08752 975.08752
-12.21315 -107.66602 951.0451 951.0451
-70.01368 -161.69817 1014.0637 1014.0637
-50.145756 -77.039909 966.58398 966.58398
52.470291 -20.123184 1020.5626 1020.5626
44.958542 -58.527344 970.88776 970.88776
-77.57193 -67.797165 995.72687 995.72687
-50.869045 -101.59474 963.9198 963.9198
53.770905 -68.954117 971.61096 971.61096
-27.947334 -172.82607 987.42755 987.42755
69.610458 -48.813278 999.65814 999.65814
-75.425659 -110.19614 985.13855 985.13855
7.4181061 -84.661377 951.46222 951.46222
-10.127235 -177.01743 987.02576 987.02576
-16.102539 -21.5103 990.16626 990.16626
59.502533 -168.76729 1008.4006 1008.4006
12.532043 -107.64135 951.08307 951.08307
18.973717 -192.87459 1018.1518 1018.1518
-4.2124023 -68.551651 955.16724 955.16724
12.51458 -68.683624 955.85828 955.85828
-55.05468 -164.36742 996.84155 996.84155
-54.424408 -69.059784 972.02124 972.02124
-44.287182 -152.57623 977.37506 977.37506
-24.726776 -80.553795 955.07672 955.07672
-48.598225 -46.913818 980.57324 980.57324
62.086884 -28.628464 1017.5759 1017.5759
21.775558 -40.458359 972.66553 972.66553
65.668686 -125.28301 978.94794 978.94794
41.635925 -101.92529 959.10034 959.10034
-26.706154 -159.58858 974.26373 974.26373
74.68486 -50.884506 1005.1688 1005.1688
83.818436 -151.27795 1031.4247 1031.4247
-31.830231 -158.02753 975.03571 975.03571
31.533096 -40.420959 976.13525 976.13525
-49.657928 -25.010895 1006.2881 1006.2881
54.665878 -42.23877 989.37592 989.37592
50.294815 -49.656265 979.74377 979.74377
64.078003 -157.15694 998.74481 998.74481
36.61618 -112.15497 957.74213 957.74213
78.778717 -77.379166 992.70941 992.70941
48.908203 -74.893394 966.46771 966.46771
-51.605343 -166.70009 996.26001 996.26001
-6.2885437 -13.755066 999.77783 999.77783
-68.172844 -98.283997 976.85962 976.85962
40.297745 -36.001724 984.57593 984.57593
0.047210693 -88.416328 950.67322 950.67322
-14.493019 -136.93219 958.20691 958.20691
-69.766853 -100.44267 978.35931 978.35931
16.888466 -123.43544 954.26306 954.26306
-36.125439 -68.913422 962.08765 962.08765
26.592651 -193.34451 1025.9244 1025.9244
-39.852875 -166.92603 987.28912 987.28912
-4.3412933 -159.22784 969.5437 969.5437
-45.841904 -37.074463 987.23938 987.23938
-48.829521 -127.34084 967.12567 967.12567
62.801498 -134.92206 980.45563 980.45563
55.506165 -179.00485 1023.975 1023.975
-11.325912 -152.26862 965.50317 965.50317
-19.275749 -44.180298 969.29926 969.29926
-17.444496 -79.939285 953.59845 953.59845
-22.12915 -192.7287 1019.8058 1019.8058
-65.676514 -126.58273 979.43121 979.43121
-35.955017 -107.8666 957.01959 957.01959
42.505051 -75.751648 962.79138 962.79138
89.322205 -107.16238 1005.6125 1005.6125
-45.809944 -95.141685 961.2428 961.2428
15.885292 -69.483093 956.10443 956.10443
-0.35489655 -59.963547 958.36511 958.36511
-31.190048 -171.83505 987.81555 987.81555
28.629608 -110.7246 954.78796 954.78796
44.15535 -86.808182 961.25159 961.25159
29.371124 -36.656219 978.41156 978.41156
24.393906 -155.35674 970.37231 970.37231
62.631027 -33.958221 1008.5773 1008.5773
66.654373 -93.02256 975.78064 975.78064
85.272171 -71.744385 1006.0651 1006.0651
-7.4163055 -56.653946 960.18842 960.18842
-89.949844 -72.179474 1016.3096 1016.3096
59.698776 -80.010925 972.30511 972.30511
-87.252296 -146.28082 1034.3436 1034.3436
-8.8439255 -166.86871 976.17346 976.17346
-6.2600021 -136.08945 956.94965 956.94965
-11.37236 -153.59406 966.34387 966.34387
17.726639 -31.075546 979.74915 979.74915
4.1231995 -115.98667 951.37231 951.37231
2.5458679 -138.93108 957.92456 957.92456
-65.297852 -143.42639 987.94891 987.94891
73.236435 -89.139351 982.7804 982.7804
17.658142 -96.753036 951.62494 951.62494
-68.633064 -132.3277 984.85077 984.85077
-65.441338 -81.516983 976.68011 976.68011
-11.851463 -52.487305 962.81006 962.81006
-39.075363 -62.694977 965.84863 965.84863
-19.439659 -83.222832 953.35309 953.35309
17.903343 -155.54858 968.79761 968.79761
-42.210472 -54.042557 971.85791 971.85791
12.37719 -74.909294 953.99341 953.99341
-45.073586 -129.64879 965.80188 965.80188
47.180161 -177.02676 1007.0942 1007.0942
40.021484 -58.817291 968.13263 968.13263
26.122078 -35.755188 977.95667 977.95667
53.6987 -32.009445 1000.0627 1000.0627
-48.652 -68.311768 968.58234 968.58234
-31.76342 -68.037811 960.72791 960.72791
78.525299 -146.0827 1008.6459 1008.6459
51.386566 -159.9471 988.63416 988.63416
84.875809 -151.9296 1040.0293 1040.0293
-37.23735 -136.29961 964.58502 964.58502
73.194885 -164.12596 1026.9702 1026.9702
50.77005 -90.990326 964.31903 964.31903
46.917007 -180.7177 1014.1747 1014.1747
23.722366 -132.8403 958.57373 958.57373
68.391556 -106.63342 977.34607 977.34607
-1.0507736 -166.33705 975.17828 975.17828
25.615776 -98.070778 953.35577 953.35577
-50.8092 -177.69432 1012.8245 1012.8245
18.7659 -172.66144 983.90796 983.90796
38.357422 -176.157 997.7619 997.7619
84.200699 -125.99701 1002.7306 1002.7306
18.688133 -15.525635 999.85187 999.85187
-91.493454 -78.144958 1016.0691 1016.0691
70.985062 -79.087624 982.74084 982.74084
20.48848 -129.59091 956.70154 956.70154
23.443047 -154.87808 969.75775 969.75775
72.227234 -124.56431 985.34845 985.34845
14.035271 -25.149414 985.18951 985.18951
-92.617035 -80.76799 1017.5621 1017.5621
-88.307724 -74.314735 1010.7315 1010.7315
25.846062 -84.086884 954.71753 954.71753
38.729401 -10.411774 1028.2289 1028.2289
-91.580704 -89.785156 1011.1589 1011.1589
47.187439 -79.867592 964.16278 964.16278
-31.183098 -162.92677 978.81128 978.81128
5.1162491 -26.828598 982.03113 982.03113
43.504578 -77.738106 962.75458 962.75458
-65.176376 -107.56139 974.53564 974.53564
57.762436 -120.80796 971.06628 971.06628
-54.472984 -36.648849 995.05164 995.05164
-13.498047 -114.8721 952.03766 952.03766
7.7673187 -184.85565 997.66278 997.66278
-88.686142 -103.17094 1003.9054 1003.9054
63.167862 -175.9247 1034.3391 1034.3391
25.614334 -26.863129 986.79474 986.79474
