# .PCD v0.7 - Point Cloud Data file format
VERSION 0.7
FIELDS x y z intensity
SIZE 4 4 4 4
TYPE F F F F
COUNT 1 1 1 1
WIDTH 1150
HEIGHT 1
VIEWPOINT 0 0 0 1 0 0 0
POINTS 1150
DATA ascii
-59.81601 -187.75005 973.8241 973.8241
-31.437347 -73.618332 932.15332 932.15332
-137.09427 -53.091919 919.85236 919.85236
-177.08144 -133.63524 945.89709 945.89709
-41.247116 -167.04819 954.69397 954.69397
-178.86264 -129.91223 946.27905 946.27905
-63.643997 -191.89987 984.74701 984.74701
-62.865967 -8.2752228 985.59064 985.59064
-127.92442 -85.782539 905.03638 905.03638
-126.5506 -74.910294 906.91095 906.91095
-57.779892 -186.73721 973.65387 973.65387
-30.301208 -154.60449 953.51959 953.51959
-120.31609 -20.580322 942.73071 942.73071
-63.799957 -59.680481 915.953 915.953
-83.626709 -179.36948 941.41327 941.41327
-120.70602 -41.22374 921.79126 921.79126
-110.19778 -157.20299 918.61316 918.61316
-141.07884 -115.70803 910.19031 910.19031
-61.417038 -86.964966 908.66852 908.66852
-109.11265 -5.6555786 968.12384 968.12384
-144.0831 -159.7793 933.04395 933.04395
-140.73805 -21.384354 953.52429 953.52429
-6.2588501 -65.48877 995.35553 995.35553
-160.23419 -149.33141 937.24451 937.24451
-112.33805 -5.5843048 969.44757 969.44757
-49.479874 -96.954666 913.7536 913.7536
-49.76149 -146.31519 926.98633 926.98633
-143.60526 -77.448402 912.87933 912.87933
-63.950836 -94.846786 906.86621 906.86621
-178.76373 -154.33434 970.94739 970.94739
-96.739403 -96.248604 900.1236 900.1236
-66.972488 -188.08382 966.08209 966.08209
-41.899658 -155.6866 940.64215 940.64215
-18.060318 -49.449539 972.9715 972.9715
-90.638908 -66.065216 906.40088 906.40088
-115.68066 -58.325333 910.46039 910.46039
-144.39767 -122.77174 913.33807 913.33807
-156.25266 -81.538055 919.40973 919.40973
-177.05467 -102.46614 936.30939 936.30939
-57.717911 -177.12648 952.42133 952.42133
-47.938904 -155.53668 935.15155 935.15155
-51.5979 -77.31292 915.48651 915.48651
-112.06375 -115.43078 901.93695 901.93695
-195.68542 -115.88473 975.66943 975.66943
-108.74226 -100.16312 900.383 900.383
-52.880737 -118.73519 913.80969 913.80969
-97.232857 -11.655243 953.22876 953.22876
-97.402481 -190.75027 958.07581 958.07581
-95.556 -60.230286 908.35602 908.35602
-20.26059 -126.26276 945.6687 945.6687
-15.011414 -129.53818 956.36017 956.36017
-131.66681 -97.247864 905.18628 905.18628
-26.035461 -71.954376 938.82245 938.82245
-133.37167 -60.960281 914.19653 914.19653
-112.62672 -162.3902 922.87653 922.87653
-76.804543 -81.160942 904.56909 904.56909
-121.82837 -116.8186 903.87164 903.87164
-141.61374 -107.25357 909.35962 909.35962
-102.30045 -191.59192 959.92969 959.92969
-66.528824 -170.46301 937.43286 937.43286
-49.181107 -70.058212 919.24774 919.24774
-127.52817 -152.53777 919.48926 919.48926
-147.35361 -168.67966 944.85712 944.85712
-122.40719 -140.73309 911.46338 911.46338
-157.09076 -133.75171 925.15704 925.15704
-150.44949 -111.60303 914.44171 914.44171
-36.073212 -48.084396 943.27136 943.27136
-10.631317 -95.286003 955.37921 955.37921
-157.13525 -156.67021 940.63629 940.63629
-101.83404 -155.51593 916.84583 916.84583
-38.824997 -122.43661 924.14343 924.14343
-173.69 -42.988342 963.67572 963.67572
-197.04822 -109.27438 977.73724 977.73724
-78.127182 -118.87351 904.26404 904.26404
-81.096352 -132.45203 907.32037 907.32037
-117.09135 -34.903885 926.03796 926.03796
-33.136124 -55.068253 940.75171 940.75171
-67.017715 -174.07704 941.47852 941.47852
-72.126785 -172.0011 936.44745 936.44745
-70.612167 -188.81021 964.65735 964.65735
-102.72105 -12.454407 951.74689 951.74689
-103.44906 -33.986832 924.96423 924.96423
-8.5075226 -79.175606 965.42444 965.42444
-35.194199 -115.39832 925.41382 925.41382
-178.97488 -72.727371 945.05304 945.05304
-142.36316 -44.667297 928.2807 928.2807
-86.255775 -106.48457 901.1615 901.1615
-31.026001 -74.301865 932.30811 932.30811
-62.520874 -74.799522 910.77979 910.77979
-179.21075 -80.22348 942.25446 942.25446
-41.906708 -81.927361 920.6366 920.6366
-79.03688 -174.1953 936.31635 936.31635
-53.566711 -74.611832 915.15076 915.15076
-178.49887 -89.531197 938.93994 938.93994
-147.09793 -24.105972 955.03467 955.03467
-55.535767 -142.82509 921.33014 921.33014
-190.84387 -128.7874 969.69031 969.69031
-131.5213 -194.82396 996.14978 996.14978
-60.038406 -105.8849 908.52081 908.52081
-114.07281 -182.05762 944.60596 944.60596
-159.59378 -57.941895 931.59167 931.59167
-192.15187 -75.155235 970.15424 970.15424
-95.21109 -175.54182 934.65094 934.65094
-105.91664 -160.91545 920.91589 920.91589
-141.17688 -161.16756 932.45007 932.45007
-51.524353 -107.82867 912.88617 912.88617
-73.033585 -191.53619 970.1012 970.1012
-102.87794 -167.0799 925.89197 925.89197
-115.3488 -32.866608 927.49121 927.49121
-113.2082 -118.4741 902.61292 902.61292
-111.28304 -163.37582 923.47418 923.47418
-100.45078 -89.956032 900.50671 900.50671
-149.02264 -86.001335 913.97198 913.97198
-115.72419 -163.72942 924.5592 924.5592
-137.78717 -58.516159 917.22791 917.22791
-72.466087 -175.83655 940.91785 940.91785
-167.41701 -154.327 949.96478 949.96478
-144.06441 -127.04202 914.40179 914.40179
-90.641716 -3.5018921 975.49414 975.49414
-77.876915 -160.08363 923.18512 923.18512
-122.64517 -79.623566 904.75299 904.75299
-122.60632 -29.784256 932.48181 932.48181
-14.544128 -74.547127 954.72919 954.72919
-110.29038 -153.78519 916.32648 916.32648
-166.38327 -69.826431 931.56891 931.56891
-94.022415 -35.123688 924.13611 924.13611
-61.737854 -63.682495 915.04681 915.04681
-119.92555 -165.25334 926.89069 926.89069
-159.63292 -26.013687 968.85614 968.85614
-63.652145 -95.949936 906.9278 906.9278
-159.40451 -112.48598 920.53174 920.53174
-17.995193 -108.42753 943.39447 943.39447
-146.71945 -78.616928 914.20923 914.20923
-81.46006 -19.021988 944.33282 944.33282
-76.909233 -36.204803 926.53577 926.53577
-31.340469 -47.752151 949.44281 949.44281
-72.660957 -61.382904 911.90179 911.90179
-60.454971 -117.4753 909.82904 909.82904
-88.116852 -125.52492 904.04547 904.04547
-33.392883 -28.741226 977.96185 977.96185
-154.28305 -57.838791 927.36542 927.36542
-60.960419 -64.45015 915.07581 915.07581
-139.54047 -93.183502 908.40259 908.40259
-145.43916 -78.152153 913.64056 913.64056
-107.14834 -104.95417 900.37891 900.37891
-20.456161 -75.93306 944.38025 944.38025
-160.60873 -161.30521 949.32208 949.32208
-112.65015 -54.368454 911.922 911.922
-94.687714 -142.90103 909.82642 909.82642
-107.81986 -14.215149 949.20819 949.20819
-64.459625 -104.46062 906.63519 906.63519
-16.032776 -119.53877 949.32709 949.32709
-26.821793 -148.53934 952.15771 952.15771
-9.9578247 -119.95169 961.34332 961.34332
-142.57585 -105.52332 909.68506 909.68506
-124.27901 -43.253983 921.3208 921.3208
-69.312897 -101.27345 904.83344 904.83344
-140.72517 -59.912659 917.93622 917.93622
-135.60272 -143.51306 917.30139 917.30139
-149.89969 -180.97531 969.12897 969.12897
-15.46402 -109.27031 947.39081 947.39081
-9.3265991 -89.569054 959.14014 959.14014
-85.496094 -160.43634 921.66046 921.66046
-83.567726 -135.63962 908.02283 908.02283
-100.54797 -136.37454 906.85175 906.85175
-136.63446 -154.1581 924.33746 924.33746
-197.41972 -88.910004 980.34271 980.34271
-28.091248 -93.999077 930.76764 930.76764
-43.859344 -124.29142 920.89148 920.89148
-152.58029 -101.28043 914.94897 914.94897
-172.54781 -127.45689 936.88953 936.88953
-169.07861 -59.780823 939.91205 939.91205
-55.256516 -26.487701 949.06903 949.06903
-125.98893 -49.821014 917.49762 917.49762
-181.13765 -52.638824 965.74213 965.74213
-145.80934 -131.77548 916.98297 916.98297
-104.53896 -191.80388 960.61163 960.61163
-164.87373 -107.58656 924.27783 924.27783
-133.51044 -83.668877 907.20807 907.20807
-155.98941 -169.09854 954.27716 954.27716
-109.86384 -26.32753 933.104 933.104
-136.81007 -75.87484 910.20581 910.20581
-21.868988 -67.178162 946.9126 946.9126
-39.275208 -89.133873 921.29529 921.29529
-59.082657 -125.45364 912.37646 912.37646
-78.019287 -76.602066 905.29315 905.29315
-13.704865 -93.594154 949.87903 949.87903
-83.709358 -126.24644 904.89093 904.89093
-118.10413 -195.88785 978.14227 978.14227
-94.494522 -40.090561 920.12164 920.12164
-185.22816 -87.064102 949.31647 949.31647
-135.34692 -169.76677 937.68475 937.68475
-73.389641 -53.642563 915.48444 915.48444
-11.782379 -56.957062 980.89618 980.89618
-152.0316 -137.95053 923.49854 923.49854
-57.211777 -177.59544 953.65222 953.65222
-129.97534 -52.11525 917.48621 917.48621
-61.628479 -57.355927 918.09082 918.09082
-104.57685 -79.184761 902.29749 902.29749
-43.781509 -101.367 917.31012 917.31012
-11.364441 -115.65035 956.42474 956.42474
-158.58778 -82.145035 920.95148 920.95148
-92.101227 -185.65195 948.99652 948.99652
-150.78891 -172.688 953.77295 953.77295
-71.5009 -65.636581 910.51843 910.51843
-113.56515 -41.87674 919.76489 919.76489
-61.679657 -96.361839 907.70526 907.70526
-68.050461 -162.16179 928.4798 928.4798
-75.713837 -140.73611 911.96167 911.96167
-189.64273 -120.87872 960.90704 960.90704
-164.77635 -29.136795 972.02802 972.02802
-68.314255 -168.83224 934.74561 934.74561
-102.36339 -44.997864 916.51837 916.51837
-27.660599 -94.198921 931.20056 931.20056
-136.63608 -93.062973 907.21167 907.21167
-148.6615 -117.54704 914.4187 914.4187
-15.215759 -56.935623 969.06311 969.06311
-182.16879 -97.196342 943.07526 943.07526
-111.89749 -68.51384 905.83484 905.83484
-128.04214 -136.88487 911.38202 911.38202
-123.8634 -166.76622 929.48181 929.48181
-48.075745 -27.120712 955.36279 955.36279
-40.120789 -128.62775 925.20074 925.20074
-138.45351 -12.68428 970.04517 970.04517
-118.83548 -29.516556 931.60913 931.60913
-86.991844 -172.11061 931.94965 931.94965
-100.21265 -13.758545 949.38019 949.38019
-73.45005 -105.16876 903.72754 903.72754
-124.19558 -27.442413 935.57971 935.57971
-28.718002 -34.996796 973.66638 973.66638
-113.52597 -97.62635 900.94739 900.94739
-160.67825 -177.32881 981.60425 981.60425
-188.32994 -111.15504 954.46552 954.46552
-145.69757 -102.71128 911.09338 911.09338
-145.79747 -165.63902 940.04907 940.04907
-52.623596 -128.81107 916.78101 916.78101
-54.26239 -37.157043 937.08075 937.08075
-134.20575 -87.711426 906.83905 906.83905
-73.13826 -161.22714 925.63818 925.63818
-103.05187 -127.55676 903.92029 903.92029
-160.50099 -131.87784 927.03815 927.03815
-105.23221 -22.829086 936.61804 936.61804
-16.913467 -107.60786 944.87518 944.87518
-174.62697 -127.95365 939.58966 939.58966
-41.888611 -21.165146 979.79773 979.79773
-50.95575 -40.861877 935.9895 935.9895
-20.563477 -69.854111 947.26422 947.26422
-167.48236 -119.37653 928.79126 928.79126
-169.44144 -120.04452 930.89063 930.89063
-38.335342 -152.00893 940.90228 940.90228
-46.171768 -56.221039 927.98663 927.98663
-123.73754 -3.7894135 986.5816 986.5816
-155.61292 -21.789886 971.88629 971.88629
-26.582489 -84.405281 933.91919 933.91919
-144.89148 -133.29056 917.07538 917.07538
-141.59683 -36.103287 935.29364 935.29364
-70.062164 -191.48766 972.91248 972.91248
-155.32712 -170.71909 955.98047 955.98047
-127.36442 -187.12427 959.25012 959.25012
-67.987198 -113.45252 906.22253 906.22253
-79.498016 -176.49387 938.9397 938.9397
-58.307083 -46.492844 926.52429 926.52429
-96.498505 -89.611267 900.60278 900.60278
-149.07904 -102.99741 912.92383 912.92383
-86.669624 -133.98293 906.90082 906.90082
-143.69458 -84.296692 911.43256 911.43256
-188.57306 -139.96306 976.38293 976.38293
-145.67223 -37.570007 936.62378 936.62378
-146.73044 -85.094955 912.85583 912.85583
-133.07678 -12.060623 965.75684 965.75684
-94.337227 -195.98508 972.52643 972.52643
-43.136292 -60.989456 927.57971 927.57971
-161.39984 -103.09932 921.13013 921.13013
-64.365921 -47.296097 922.84747 922.84747
-141.47461 -95.533356 909.11597 909.11597
-63.062622 -31.701691 936.98438 936.98438
-16.003403 -107.11937 946.20514 946.20514
-138.9567 -109.82521 908.42578 908.42578
-38.729828 -23.383606 980.612 980.612
-109.05344 -148.33218 912.92511 912.92511
-169.85712 -132.10928 936.05487 936.05487
-66.682281 -51.036575 919.42389 919.42389
-55.37085 -156.35248 930.48285 930.48285
-118.02367 -80.577576 903.57428 903.57428
-184.30475 -76.771797 951.4906 951.4906
-39.202835 -44.641083 943.08698 943.08698
-47.426544 -75.874016 918.42816 918.42816
-125.51367 -196.44525 993.11768 993.11768
-106.57494 -120.0554 902.25262 902.25262
-106.049 -41.925812 918.81628 918.81628
-88.722267 -152.47977 915.62769 915.62769
-86.134567 -178.6115 939.76727 939.76727
-180.03708 -94.736053 940.28101 940.28101
-36.049301 -25.245605 982.05322 982.05322
-87.379501 -56.890381 910.65637 910.65637
-186.73361 -111.7737 951.64032 951.64032
-91.80452 -2.4250031 979.70337 979.70337
-54.009048 -100.5067 911.2049 911.2049
-116.27101 -124.72916 904.48181 904.48181
-58.297562 -157.14482 929.32202 929.32202
-49.552963 -39.633179 938.26715 938.26715
-55.312866 -80.960594 912.58972 912.58972
-150.92961 -107.55579 914.27319 914.27319
-68.630035 -104.03901 905.13373 905.13373
-44.474274 -181.0771 981.46899 981.46899
-94.390694 -24.797867 934.32526 934.32526
-118.08005 -113.95827 902.64355 902.64355
-146.39236 -22.937836 956.30591 956.30591
-122.47321 -18.283112 946.92169 946.92169
-39.722137 -142.29483 932.34113 932.34113
-80.127335 -127.64851 905.97534 905.97534
-167.30989 -64.435516 935.15753 935.15753
-176.78134 -104.22021 936.07178 936.07178
-99.131081 -151.80605 914.47003 914.47003
-132.23668 -159.30206 926.21613 926.21613
-115.53841 -190.09955 959.4953 959.4953
-116.07386 -178.91078 940.7149 940.7149
-102.0969 -44.191635 917.04803 917.04803
-104.00137 -94.579147 900.22723 900.22723
-57.453888 -32.361404 939.8764 939.8764
-138.93649 -135.85408 915.15643 915.15643
-109.89288 -70.115204 905.08411 905.08411
-112.36549 -108.25366 901.11133 901.11133
-168.35555 -130.96338 933.9032 933.9032
-193.6638 -75.501015 974.96222 974.96222
-57.605988 -60.617523 918.44165 918.44165
-108.19582 -5.441864 968.5105 968.5105
-22.610703 -48.196655 963.56775 963.56775
-65.124237 -158.52925 926.80157 926.80157
-64.924606 -31.354141 936.30176 936.30176
-136.07924 -48.230392 922.42297 922.42297
-177.8978 -79.821381 940.63037 940.63037
-163.88678 -111.83321 923.98389 923.98389
-182.21065 -55.378754 964.63965 964.63965
-134.14244 -117.02169 907.56323 907.56323
-102.4808 -194.98282 968.82129 968.82129
-82.678841 -36.012405 925.1297 925.1297
-96.36084 -77.774086 902.56915 902.56915
-21.986359 -117.81843 940.03021 940.03021
-116.79001 -52.204208 913.78131 913.78131
-162.51437 -124.86176 926.01453 926.01453
-131.20483 -29.220718 936.62372 936.62372
-71.015732 -118.63799 906.12488 906.12488
-48.094696 -167.81592 947.97272 947.97272
-23.460953 -126.43453 941.323 941.323
-68.667145 -45.259338 922.40033 922.40033
-92.422249 -109.20338 900.71313 900.71313
-152.10071 -67.735443 920.97778 920.97778
-33.921066 -117.96973 927.12573 927.12573
-128.79744 -55.028778 915.45239 915.45239
-99.669991 -187.79938 952.13391 952.13391
-161.86662 -50.75 938.7876 938.7876
-28.258865 -93.4795 930.64087 930.64087
-126.84228 -110.22197 904.21375 904.21375
-70.005112 -135.15775 911.31946 911.31946
-45.644043 -110.10534 916.67346 916.67346
-169.65134 -106.58504 928.5484 928.5484
-153.69591 -184.32936 997.69598 997.69598
-104.76404 -35.858566 923.42859 923.42859
-199.30432 -100.7627 988.24969 988.24969
-143.15517 -47.704651 926.49609 926.49609
-133.22142 -65.597336 912.17749 912.17749
-122.43652 -103.15012 902.6004 902.6004
-66.618866 -99.259506 905.73889 905.73889
-132.59192 -20.897034 948.22656 948.22656
-59.292007 -127.99529 913.05676 913.05676
-142.81433 -16.865189 964.56647 964.56647
-40.217621 -74.412743 924.03052 924.03052
-142.64618 -131.49391 915.20947 915.20947
-76.8396 -156.515 920.81885 920.81885
-39.839096 -175.12419 972.85187 972.85187
-115.842 -120.10426 903.33124 903.33124
-185.97781 -110.08318 949.9386 949.9386
-58.455688 -115.78294 910.41779 910.41779
-158.97073 -112.69633 920.24249 920.24249
-143.35568 -183.55345 966.24939 966.24939
-145.42685 -110.69003 911.55725 911.55725
-134.94778 -60.264236 915.1488 915.1488
-33.949753 -34.943207 962.51697 962.51697
-128.19196 -92.590126 904.34277 904.34277
-66.450974 -17.71521 954.13416 954.13416
-36.496552 -29.329086 968.80811 968.80811
-124.66505 -195.71141 984.80261 984.80261
-122.59982 -32.81842 929.46008 929.46008
-125.83507 -106.80363 903.63477 903.63477
-105.51498 -67.958557 905.43292 905.43292
-107.77943 -51.65918 912.80682 912.80682
-168.63998 -114.00411 928.63867 928.63867
-29.068497 -138.06979 940.67535 940.67535
-104.92839 -185.38603 948.18365 948.18365
-46.765961 -37.333878 943.08698 943.08698
-36.424561 -154.6026 945.44067 945.44067
-135.11053 -142.00275 916.31598 916.31598
-83.265282 -47.966248 916.2597 916.2597
-107.80512 -161.99226 921.92285 921.92285
-76.88768 -96.200203 902.7818 902.7818
-130.24438 -60.265793 913.36011 913.36011
-41.630417 -117.41911 920.69324 920.69324
-8.3792877 -85.835419 962.51654 962.51654
-128.7878 -167.38135 931.94843 931.94843
-100.69743 -6.4584656 964.65179 964.65179
-79.648361 -183.58832 949.02155 949.02155
-90.006462 -140.18399 908.97595 908.97595
-106.91565 -36.851471 922.77026 922.77026
-18.766602 -53.095886 965.34253 965.34253
-110.29832 -34.962662 924.73987 924.73987
-147.27646 -112.25851 912.73792 912.73792
-59.155365 -163.76834 934.69061 934.69061
-172.33542 -72.638702 936.60486 936.60486
-175.46655 -137.97391 946.49506 946.49506
-39.591522 -166.65765 956.32422 956.32422
-148.52127 -41.584091 934.9364 934.9364
-22.750443 -78.413651 940.27954 940.27954
-134.79086 -159.77156 927.77148 927.77148
-168.15446 -115.98418 928.58942 928.58942
-108.26437 -198.2567 983.34705 983.34705
-169.92494 -76.421913 932.51239 932.51239
-86.400772 -54.794571 911.84375 911.84375
-29.320206 -131.78281 936.80017 936.80017
-64.223007 -191.34796 980.62073 980.62073
-121.51167 -90.957848 902.76068 902.76068
-75.374207 -42.416763 922.04016 922.04016
-113.39201 -37.153549 923.37769 923.37769
-129.14413 -164.56265 929.41467 929.41467
-172.27968 -100.7308 930.89783 930.89783
-184.26273 -146.65958 973.11737 973.11737
-146.97321 -159.2547 934.55994 934.55994
-176.866 -148.23669 957.98999 957.98999
-154.15709 -127.64246 920.60919 920.60919
-47.387436 -162.2178 942.02704 942.02704
-112.42783 -34.027023 925.88446 925.88446
-80.071022 -116.03725 903.32715 903.32715
-198.89989 -92.156197 987.45856 987.45856
-1.5890198 -85.348679 989.96912 989.96912
-87.731873 -20.48555 940.61194 940.61194
-28.491348 -36.979752 969.75171 969.75171
-141.35402 -188.63161 979.16052 979.16052
-138.51483 -32.422134 937.15222 937.15222
-108.56641 -128.8667 904.64105 904.64105
-42.224716 -102.92767 918.43134 918.43134
-84.038651 -47.770386 916.23065 916.23065
-48.219894 -131.95882 920.64349 920.64349
-101.71829 -35.734955 923.40332 923.40332
-65.253769 -24.007553 945.06506 945.06506
-69.883652 -64.117981 911.65137 911.65137
-64.675934 -110.31902 907.01758 907.01758
-120.73853 -60.829514 910.35858 910.35858
-98.411263 -35.409637 923.67462 923.67462
-174.37737 -108.78379 933.73651 933.73651
-178.73967 -76.747284 942.90906 942.90906
-175.98116 -153.13338 962.53387 962.53387
-55.566864 -36.657761 936.64813 936.64813
-114.19975 -69.238968 905.91425 905.91425
-78.498772 -89.691864 902.8844 902.8844
-191.64568 -132.61456 976.81897 976.81897
-24.865997 -155.50961 964.31299 964.31299
-154.13358 -144.98364 928.9646 928.9646
-67.484924 -39.850983 927.02832 927.02832
-8.0470734 -99.224243 960.70551 960.70551
-106.83178 -102.79946 900.27295 900.27295
-51.769196 -181.4785 967.82794 967.82794
-81.366898 -76.668549 904.56177 904.56177
-114.44813 -61.161804 908.98987 908.98987
-88.929176 -52.503738 912.69855 912.69855
-122.03934 -50.601181 915.89276 915.89276
-89.887932 -169.47932 928.79346 928.79346
-117.61789 -132.4758 907.07568 907.07568
-38.137497 -83.377281 923.2099 923.2099
-88.093254 -83.823051 902.03809 902.03809
-130.61371 -9.7023315 969.84821 969.84821
-98.428833 -199.80615 993.97809 993.97809
-113.71314 -77.675095 903.49329 903.49329
-143.53954 -110.00146 910.53339 910.53339
-102.04077 -152.8627 915.1391 915.1391
-68.906876 -29.310181 936.46918 936.46918
-161.55673 -67.024475 928.42218 928.42218
-180.75696 -115.19572 943.01398 943.01398
-152.84482 -132.88365 921.73065 921.73065
-139.29431 -133.93323 914.53369 914.53369
-74.996246 -132.79877 908.90088 908.90088
-13.365097 -64.133469 965.2439 965.2439
-166.73199 -33.018448 967.43756 967.43756
-171.69037 -156.97798 959.82538 959.82538
-83.650162 -163.34476 924.36847 924.36847
-179.81755 -83.150604 942.1618 942.1618
-88.393311 -182.06161 944.04309 944.04309
-139.49452 -178.88733 952.91528 952.91528
-159.00986 -119.95921 921.77295 921.77295
-129.8309 -54.135513 916.29474 916.29474
-16.097137 -46.088593 992.66046 992.66046
-162.34692 -55.410629 935.77655 935.77655
-175.4771 -132.5231 943.03113 943.03113
-23.29425 -111.63873 936.90668 936.90668
-142.35594 -134.31252 916.16309 916.16309
-134.54193 -98.858917 906.16211 906.16211
-137.26384 -161.74866 930.7287 930.7287
-64.82164 -64.843124 913.24475 913.24475
-86.416389 -42.721024 919.16309 919.16309
-126.34394 -7.3320465 973.19238 973.19238
-119.71328 -30.518646 930.83551 930.83551
-103.94079 -15.632614 946.45923 946.45923
-100.82428 -144.50342 910.45245 910.45245
-115.10834 -39.821289 921.57642 921.57642
-121.79397 -165.60162 927.74042 927.74042
-46.209244 -39.393219 941.40503 941.40503
-90.870712 -26.697296 932.59546 932.59546
-169.6528 -144.3447 943.59045 943.59045
-15.763016 -151.29706 983.48511 983.48511
-95.139679 -109.07608 900.53137 900.53137
-76.718231 -44.470596 920.15991 920.15991
-35.495621 -32.068985 965.00623 965.00623
-197.56129 -87.356033 982.05774 982.05774
-170.85982 -93.383278 929.74969 929.74969
-185.64226 -70.348938 957.73633 957.73633
-158.20096 -77.931992 921.73346 921.73346
-91.272041 -184.85347 947.81079 947.81079
-162.42001 -172.6329 971.2215 971.2215
-17.795639 -112.78118 944.5105 944.5105
-103.2093 -195.47591 970.43561 970.43561
-116.59904 -37.671326 923.58264 923.58264
-76.862244 -66.62674 908.61694 908.61694
-115.36088 -88.375626 901.87292 901.87292
-143.09818 -67.237625 915.92163 915.92163
-100.92532 -26.26767 932.45233 932.45233
-143.53369 -24.879791 950.38373 950.38373
-124.19849 -174.81619 938.21838 938.21838
-76.627777 -39.828217 923.62531 923.62531
-13.112045 -143.4025 976.1944 976.1944
-45.438004 -64.810486 923.94287 923.94287
-129.19553 -53.226196 916.5744 916.5744
-28.265137 -100.59228 930.33105 930.33105
-137.58858 -26.173157 943.99377 943.99377
-116.2203 -87.644089 902.10089 902.10089
-93.704132 -132.73087 905.7182 905.7182
-62.890503 -107.36443 907.43298 907.43298
-30.278412 -131.46149 935.58667 935.58667
-118.16224 -106.5018 901.87836 901.87836
-123.56436 -158.09772 922.09381 922.09381
-179.62749 -121.53647 943.46997 943.46997
-27.127319 -89.162781 932.38251 932.38251
-38.93985 -132.8313 927.93225 927.93225
-72.204399 -42.327286 923.1803 923.1803
-108.70448 -42.830887 918.41614 918.41614
-145.94455 -91.529915 911.58417 911.58417
-119.88265 -124.47474 905.10181 905.10181
-147.88866 -76.053711 915.54144 915.54144
-55.604797 -95.924988 910.48767 910.48767
-72.944275 -108.14608 904.07489 904.07489
-4.0991364 -96.565628 971.87122 971.87122
-173.09157 -81.275223 934.37219 934.37219
-95.191231 -21.736221 937.93829 937.93829
-96.539841 -64.573761 906.54944 906.54944
-118.05397 -19.433945 943.58044 943.58044
-49.719269 -57.44574 924.7605 924.7605
-111.64617 -34.177094 925.62451 925.62451
-111.07639 -147.41437 912.65479 912.65479
-135.49826 -160.29239 928.5528 928.5528
-62.299515 -33.011902 936.03699 936.03699
-77.605675 -141.27859 911.71313 911.71313
-73.298683 -23.768906 941.04358 941.04358
-146.26926 -114.41357 912.52771 912.52771
-58.890411 -14.219223 969.151 969.151
-159.78241 -90.844551 920.36182 920.36182
-162.53908 -36.852783 954.16016 954.16016
-77.88607 -85.621964 903.5415 903.5415
-102.7663 -172.95012 931.65802 931.65802
-72.117386 -105.43547 904.11975 904.11975
-92.557785 -166.207 925.42627 925.42627
-107.32043 -33.138412 926.00043 926.00043
-45.569199 -70.061035 921.6358 921.6358
-78.804291 -6.5075684 971.54114 971.54114
-157.3219 -32.617264 953.37634 953.37634
-108.13728 -100.61442 900.3335 900.3335
-47.937973 -170.38524 951.67334 951.67334
-54.033279 -54.901611 923.49384 923.49384
-70.191254 -139.44171 913.07593 913.07593
-98.327698 -163.28856 922.59351 922.59351
-96.778091 -109.97346 900.55078 900.55078
-143.46115 -182.92001 964.85175 964.85175
-109.07778 -189.5836 956.4986 956.4986
-145.53008 -41.192413 933.15179 933.15179
-72.235832 -146.24564 915.79492 915.79492
-48.901657 -123.41432 917.29132 917.29132
-91.98732 -60.940964 908.29291 908.29291
-66.389114 -15.73262 957.93677 957.93677
-168.80304 -116.45625 929.32233 929.32233
-97.401031 -124.4301 903.06488 903.06488
-70.502441 -157.2475 923.49762 923.49762
-125.4045 -39.809921 924.29156 924.29156
-173.29695 -138.14157 943.67261 943.67261
-61.250229 -54.621643 919.755 919.755
-184.55116 -46.865005 994.72992 994.72992
-153.97458 -159.97267 940.92358 940.92358
-32.914307 -65.695999 934.25244 934.25244
-150.27788 -122.68573 916.58844 916.58844
-195.04277 -76.19046 980.00055 980.00055
-139.10229 -114.42575 909.09949 909.09949
-115.42646 -107.71571 901.49878 901.49878
-92.371918 -177.19394 936.88971 936.88971
-47.497665 -180.03629 971.05701 971.05701
-176.87392 -140.77615 950.72827 950.72827
-155.13947 -140.5379 927.08691 927.08691
-162.23785 -60.461594 932.44879 932.44879
-129.36948 -150.8484 919.05634 919.05634
-154.60283 -139.61737 926.18268 926.18268
-22.764465 -107.3383 936.90625 936.90625
-108.44673 -106.02818 900.53992 900.53992
-150.3486 -67.391098 919.9895 919.9895
-156.56482 -161.40558 944.9566 944.9566
-57.774048 -143.71281 920.58868 920.58868
-112.47456 -40.088867 920.91119 920.91119
-110.1171 -101.38248 900.52271 900.52271
-20.562561 -42.078964 981.70117 981.70117
-118.09996 -4.0860291 978.25372 978.25372
-143.47922 -160.52216 933.31696 933.31696
-175.07024 -34.633621 990.42426 990.42426
-47.37413 -31.647568 949.41876 949.41876
-10.617996 -84.059418 958.08636 958.08636
-50.554153 -183.45558 975.70447 975.70447
-166.93196 -26.78215 987.38019 987.38019
-40.891083 -92.871872 919.65497 919.65497
-27.169342 -82.143417 933.84235 933.84235
-75.588799 -122.5919 905.6936 905.6936
-70.466171 -160.52176 926.07526 926.07526
-136.02975 -104.02757 906.80322 906.80322
-158.50128 -164.58344 950.94312 950.94312
-145.98825 -183.70589 970.36212 970.36212
-45.31369 -92.5187 916.61273 916.61273
-32.064819 -30.730057 975.78253 975.78253
-145.50528 -39.388519 934.76569 934.76569
-196.57608 -122.28232 986.71246 986.71246
-110.47722 -167.85919 927.29956 927.29956
-113.25115 -91.553459 901.24243 901.24243
-115.83292 -31.655884 928.73712 928.73712
-48.579926 -166.33751 945.63721 945.63721
-111.69323 -157.44295 918.98413 918.98413
-110.618 -164.45085 924.28113 924.28113
-157.2175 -178.89232 977.59106 977.59106
-93.740273 -131.99371 905.46313 905.46313
-169.45224 -60.406464 939.92725 939.92725
-60.250809 -163.61951 933.87463 933.87463
-147.12805 -34.432083 941.01019 941.01019
-77.329323 -104.7283 902.71851 902.71851
-183.50281 -118.41212 948.15143 948.15143
-22.083862 -45.674866 968.72931 968.72931
-61.34346 -43.039459 927.46606 927.46606
-181.35016 -51.153122 968.43842 968.43842
-66.828537 -96.611237 905.7229 905.7229
-180.77811 -120.89709 944.88007 944.88007
-86.699341 -51.366135 913.64124 913.64124
-108.20156 -89.815605 900.85864 900.85864
-114.84731 -109.19949 901.53717 901.53717
-138.21954 -40.455719 929.33356 929.33356
-39.485596 -168.51541 959.45813 959.45813
-2.2976074 -97.141556 978.87958 978.87958
-102.38192 -108.35103 900.37781 900.37781
-94.198799 -196.40927 974.08478 974.08478
-33.963898 -99.130486 924.91022 924.91022
-165.89955 -76.830933 928.44275 928.44275
-180.06137 -83.348991 942.44202 942.44202
-149.00882 -47.622482 930.3241 930.3241
-101.89841 -105.33543 900.16046 900.16046
-146.91762 -135.90125 919.31641 919.31641
-53.459839 -63.069153 919.56293 919.56293
-140.7868 -125.53628 912.33966 912.33966
-89.606056 -184.48164 947.51367 947.51367
-59.988342 -10.779266 979.0542 979.0542
-140.55649 -151.73048 924.64001 924.64001
-59.098633 -10.106339 984.30902 984.30902
-171.94331 -139.15193 942.63025 942.63025
-100.32555 -97.017822 900.04498 900.04498
-121.59435 -68.533539 907.56873 907.56873
-76.429977 -94.954704 902.94849 902.94849
-49.774109 -79.4776 915.99884 915.99884
-25.117508 -164.91985 986.65741 986.65741
-159.23763 -122.46919 922.63049 922.63049
-96.581902 -69.624664 904.78625 904.78625
-91.221085 -138.64182 908.1864 908.1864
-17.278152 -100.69095 943.81622 943.81622
-145.30603 -12.414948 983.38007 983.38007
-25.001678 -38.442474 975.79413 975.79413
-178.2234 -135.05795 948.50208 948.50208
-179.8009 -81.216522 942.73749 942.73749
-119.66035 -106.88962 902.19403 902.19403
-142.5032 -172.6232 945.96899 945.96899
-58.778519 -92.255379 909.22107 909.22107
-138.98248 -39.829987 930.28674 930.28674
-136.99829 -36.229019 932.43976 932.43976
-109.15551 -22.555542 937.40179 937.40179
-39.627243 -177.10074 979.73657 979.73657
-77.030243 -107.24802 902.94403 902.94403
-131.38879 -98.57608 905.0647 905.0647
-175.43199 -104.79507 934.52466 934.52466
-94.570923 -149.83807 913.47437 913.47437
-141.33159 -93.907127 909.14526 909.14526
-22.743027 -156.70937 971.44464 971.44464
-172.26564 -35.987 973.92291 973.92291
-10.400116 -60.497681 979.71631 979.71631
-51.032211 -28.185776 950.55432 950.55432
-73.552132 -180.20508 946.44952 946.44952
-55.742905 -103.68552 910.4024 910.4024
-107.76406 -107.85229 900.61157 900.61157
-40.90448 -56.241074 932.22925 932.22925
-177.56398 -85.128105 938.65948 938.65948
-56.231857 -177.05998 953.67389 953.67389
-65.1465 -130.52441 911.38007 911.38007
-145.57349 -112.91953 911.93103 911.93103
-117.84345 -186.54144 953.1792 953.1792
-85.612068 -130.33383 905.8042 905.8042
-24.981598 -110.18398 934.66602 934.66602
-112.28568 -148.28543 913.29602 913.29602
-158.11327 -27.427582 963.1748 963.1748
-64.730255 -87.637878 907.24646 907.24646
-79.541672 -36.906143 925.16272 925.16272
-84.31839 -134.22375 907.35645 907.35645
-19.696686 -141.07562 956.82397 956.82397
-84.024277 -96.624527 901.3421 901.3421
-116.18851 -132.05908 906.67181 906.67181
-191.02159 -136.1207 979.74255 979.74255
-116.61378 -55.885452 911.80768 911.80768
-53.450516 -175.20197 953.33301 953.33301
-83.938431 -109.94053 901.80017 901.80017
-117.55408 -7.3000488 966.85529 966.85529
-32.248154 -41.132874 955.90521 955.90521
-5.0364685 -108.56594 969.85779 969.85779
-10.506241 -130.03064 966.99957 966.99957
-54.446487 -34.6362 939.56451 939.56451
-27.07132 -76.845871 935.61603 935.61603
-107.08776 -62.76033 907.46368 907.46368
-71.790817 -147.68164 916.74915 916.74915
-142.57796 -181.92891 961.59723 961.59723
-14.922913 -101.45555 947.46649 947.46649
-110.24286 -12.891708 951.96637 951.96637
-5.3474121 -91.105721 968.98743 968.98743
-70.381653 -184.2854 955.06976 955.06976
-14.64241 -98.996147 947.91284 947.91284
-130.76195 -145.68878 916.53601 916.53601
-152.74155 -161.55466 941.43933 941.43933
-96.985771 -165.46341 924.46552 924.46552
-19.354706 -144.33313 960.87317 960.87317
-68.237305 -82.960831 906.72192 906.72192
-150.50327 -74.441299 917.5611 917.5611
-101.77319 -176.51796 935.6427 935.6427
-40.837418 -107.60979 919.73865 919.73865
-31.539078 -81.832329 929.40936 929.40936
-184.53009 -100.11066 946.57104 946.57104
-21.222336 -78.18959 942.39459 942.39459
-160.67932 -87.781609 921.45874 921.45874
-137.64822 -82.354187 909.05365 909.05365
-77.499023 -58.17807 911.9964 911.9964
-63.678589 -187.66623 968.45026 968.45026
-21.541199 -157.07797 975.78595 975.78595
-173.52617 -42.01355 964.90765 964.90765
-168.10063 -74.806229 931.24261 931.24261
-40.113464 -77.527283 923.13269 923.13269
-164.46863 -112.4773 924.58044 924.58044
-14.55304 -117.83723 951.20807 951.20807
-10.378265 -131.28217 968.54572 968.54572
-102.68644 -56.266541 910.11023 910.11023
-118.90481 -63.543015 908.82166 908.82166
-46.077209 -143.0416 927.61383 927.61383
-97.159019 -175.6736 934.6897 934.6897
-40.186066 -128.70749 925.17908 925.17908
-164.07074 -155.4384 946.88196 946.88196
-166.58524 -117.19675 927.40057 927.40057
-198.7135 -93.116989 985.56848 985.56848
-61.558777 -191.33301 986.56299 986.56299
-160.26852 -69.11525 926.4212 926.4212
-159.02271 -100.63779 919.27881 919.27881
-31.909286 -29.320084 980.81659 980.81659
-65.244659 -56.827515 916.76416 916.76416
-63.199753 -94.886826 907.1582 907.1582
-34.126282 -78.480186 927.90594 927.90594
-122.61901 -5.0062256 978.44629 978.44629
-62.150894 -55.886703 918.62762 918.62762
-82.375023 -128.29199 905.71893 905.71893
-147.97505 -80.860153 914.37256 914.37256
-82.664696 -113.7775 902.48248 902.48248
-5.9908905 -75.638596 976.15027 976.15027
-127.99341 -165.29959 929.6272 929.6272
-108.10881 -192.65866 963.27643 963.27643
-64.430832 -78.912987 908.94958 908.94958
-158.62537 -112.99888 920.03693 920.03693
-46.528183 -58.147842 926.58911 926.58911
-73.811447 -111.70362 904.20239 904.20239
-128.32007 -54.332809 915.66449 915.66449
-170.6291 -112.86585 930.38678 930.38678
-120.02708 -67.904907 907.43207 907.43207
-192.32356 -128.82411 974.59271 974.59271
-87.363876 -53.479782 912.38611 912.38611
-180.09863 -80.297409 943.46667 943.46667
-116.21247 -84.984589 902.47211 902.47211
-164.51398 -140.36365 935.12531 935.12531
-65.337433 -13.655151 963.35205 963.35205
-124.952 -13.12117 957.22772 957.22772
-122.82353 -148.814 915.76056 915.76056
-109.66662 -124.22327 903.46094 903.46094
-51.035233 -151.63647 929.74243 929.74243
-170.96294 -86.330605 930.88123 930.88123
-12.699966 -75.08831 958.07019 958.07019
-37.658768 -175.52737 979.77167 979.77167
-79.783669 -47.016327 917.63477 917.63477
-109.40927 -69.80217 905.13403 905.13403
-96.590065 -30.06839 928.6001 928.6001
-170.37477 -144.75897 944.82733 944.82733
-40.344376 -160.40976 947.16187 947.16187
-130.16812 -165.41721 930.64246 930.64246
-133.85788 -168.93112 935.95203 935.95203
-154.48364 -143.43423 928.27136 928.27136
-164.883 -34.463394 961.33282 961.33282
-132.22104 -178.13333 946.54919 946.54919
-82.245384 -114.56023 902.67181 902.67181
-27.480042 -97.345009 931.19733 931.19733
-101.72684 -169.42764 928.04987 928.04987
-63.286484 -128.02005 911.30396 911.30396
-14.972443 -123.98071 953.14661 953.14661
-87.467972 -96.111618 900.86462 900.86462
-192.93373 -118.49805 968.04468 968.04468
-57.684372 -174.51006 948.44769 948.44769
-148.55965 -161.43951 937.8136 937.8136
-54.048004 -113.40435 912.20056 912.20056
-175.8735 -62.83107 946.50531 946.50531
-165.65103 -64.570328 933.40662 933.40662
-117.2368 -35.01474 925.97424 925.97424
-110.55643 -9.7687378 958.20428 958.20428
-90.943817 -189.69063 956.71515 956.71515
-46.806152 -75.417603 918.96838 918.96838
-69.554321 -45.312714 922.0105 922.0105
-133.57083 -72.027611 910.05255 910.05255
-38.564636 -38.646698 950.38684 950.38684
-180.72336 -98.308586 941.00104 941.00104
-124.39655 -82.968201 904.52893 904.52893
-76.225647 -21.822601 942.35388 942.35388
-101.87682 -109.03068 900.42627 900.42627
-126.16715 -84.282005 904.77277 904.77277
-112.99315 -166.81796 926.74335 926.74335
-97.812592 -48.150208 914.52008 914.52008
-117.09852 -90.377831 901.9436 901.9436
-160.81395 -36.68158 952.12054 952.12054
-153.29443 -58.081497 926.49799 926.49799
-16.041321 -88.861885 946.83154 946.83154
-177.81744 -123.36826 941.70447 941.70447
-139.75865 -90.660629 908.72009 908.72009
-47.644882 -164.78101 944.66138 944.66138
-129.32397 -71.137329 908.85699 908.85699
-97.343124 -174.52129 933.3703 933.3703
-54.096298 -26.081238 950.71649 950.71649
-142.93892 -19.541748 958.97906 958.97906
-83.172119 -34.803604 926.06592 926.06592
-41.227844 -43.815155 941.78406 941.78406
-38.097183 -123.59254 925.09052 925.09052
-80.12307 -66.189514 908.01221 908.01221
-60.8797 -110.85953 908.61249 908.61249
-117.57922 -173.61533 934.64136 934.64136
-7.1603851 -134.66324 986.61096 986.61096
-34.264236 -71.157806 930.38007 930.38007
-94.074417 -89.383163 900.74188 900.74188
-131.97293 -108.29478 905.61285 905.61285
-82.714066 -159.83105 921.76038 921.76038
-89.579308 -44.443726 917.50812 917.50812
-136.93367 -175.15204 945.33673 945.33673
-67.745193 -163.91255 930.18011 930.18011
-30.464417 -92.103111 928.5686 928.5686
-125.81718 -149.29175 916.91089 916.91089
-1.3540497 -85.294846 992.7381 992.7381
-15.133591 -92.004761 947.71454 947.71454
-23.589172 -118.09066 938.07977 938.07977
-77.452087 -43.355911 920.73438 920.73438
-173.4644 -42.204636 964.46582 964.46582
-66.694733 -22.577606 946.18054 946.18054
-146.27132 -109.87699 911.90112 911.90112
-55.465225 -69.244568 915.91223 915.91223
-127.09801 -143.77026 914.26868 914.26868
-85.204224 -2.3559113 984.29279 984.29279
-72.384308 -86.632935 904.82281 904.82281
-193.62076 -120.95737 971.7876 971.7876
-17.279343 -109.79033 944.66968 944.66968
-107.09383 -49.935913 913.72565 913.72565
-173.33525 -149.45642 953.35236 953.35236
-95.284035 -21.828506 937.81494 937.81494
-100.67326 -61.098892 907.87915 907.87915
-67.96785 -86.270584 906.26929 906.26929
-75.74762 -58.357529 912.37738 912.37738
-115.45072 -64.90596 907.64374 907.64374
-83.535133 -22.190323 939.38184 939.38184
-55.877197 -35.621338 937.48145 937.48145
-134.05426 -149.48112 920.05048 920.05048
-3.2023926 -84.395027 980.33508 980.33508
-52.413071 -75.125038 915.63934 915.63934
-38.503433 -76.253319 924.80511 924.80511
-183.81891 -129.15755 953.91064 953.91064
-30.417801 -158.63834 958.52875 958.52875
-157.99454 -75.130081 922.42346 922.42346
-143.17744 -11.928375 980.5296 980.5296
-87.683167 -73.800232 904.28235 904.28235
-86.848007 -27.726059 932.15088 932.15088
-97.377693 -167.93195 926.6626 926.6626
-42.498566 -56.667252 930.60364 930.60364
-164.33438 -63.90625 932.48462 932.48462
-144.1604 -61.255615 919.07574 919.07574
-65.593842 -103.71297 906.17871 906.17871
-60.401199 -71.883942 912.58478 912.58478
-81.861221 -99.681541 901.65936 901.65936
-60.494415 -108.29221 908.50928 908.50928
-111.47684 -153.51736 916.30908 916.30908
-46.401672 -22.387222 966.78137 966.78137
-79.791435 -80.539909 904.01605 904.01605
-21.37233 -121.31635 942.00598 942.00598
-185.35458 -135.29555 961.6748 961.6748
-62.711655 -140.3334 916.43689 916.43689
-107.42319 -106.04893 900.45953 900.45953
-17.876251 -122.08432 947.38849 947.38849
-90.413269 -81.875763 902.12451 902.12451
-114.55756 -164.56836 925.03998 925.03998
-64.974686 -103.81532 906.41223 906.41223
-120.26167 -30.939621 930.57288 930.57288
-182.31184 -84.914993 945.2533 945.2533
-155.87024 -91.43573 917.50653 917.50653
-136.68538 -173.38127 942.82159 942.82159
-16.498322 -74.607384 951.18726 951.18726
-52.5186 -164.05844 939.65076 939.65076
-160.47838 -74.196793 924.65704 924.65704
-98.43985 -78.849854 902.27466 902.27466
-115.64338 -60.705765 909.38403 909.38403
-125.0577 -154.80315 920.19568 920.19568
-89.737762 -79.067375 902.75537 902.75537
-117.43616 -116.63172 902.94659 902.94659
-108.79642 -183.87004 946.2558 946.2558
-84.813118 -14.993881 949.56866 949.56866
-128.7545 -156.6689 922.78723 922.78723
-109.29955 -45.611603 916.60083 916.60083
-47.024994 -95.402397 915.30933 915.30933
-99.331894 -152.25594 914.74231 914.74231
-71.683594 -181.55409 949.53107 949.53107
-167.27109 -95.05867 926.17462 926.17462
-142.81587 -153.11169 926.88403 926.88403
-141.54645 -87.365486 909.92078 909.92078
-150.34955 -15.190704 983.49829 983.49829
-166.5363 -115.42149 926.95825 926.95825
-34.781052 -173.52625 981.5506 981.5506
-99.949181 -23.670761 935.39471 935.39471
-158.57111 -71.40152 924.16101 924.16101
-87.489761 -139.48463 908.98102 908.98102
-124.59011 -146.14415 914.75891 914.75891
-199.17711 -95.709656 987.93793 987.93793
-96.966194 -127.04163 903.77344 903.77344
-79.135277 -43.658295 920.06079 920.06079
-76.158501 -171.5162 934.29602 934.29602
-42.591476 -46.731384 937.81708 937.81708
-179.23225 -133.29956 948.87866 948.87866
-25.148804 -143.23059 949.71667 949.71667
-194.67064 -114.4756 971.22626 971.22626
-65.705032 -100.06069 906.06464 906.06464
-23.677902 -146.99461 955.6554 955.6554
-45.388275 -170.20583 954.29767 954.29767
-8.2637177 -80.728172 965.17114 965.17114
-34.046677 -163.55748 959.86768 959.86768
-96.247292 -175.5822 934.62988 934.62988
-179.74939 -121.46432 943.61456 943.61456
-31.178543 -38.326218 961.79071 961.79071
-37.0504 -61.684387 932.40369 932.40369
-47.218811 -84.930527 916.41138 916.41138
-126.62972 -190.67432 967.30408 967.30408
-66.576965 -111.65189 906.47388 906.47388
-57.55426 -154.79755 927.91956 927.91956
-83.056686 -74.877586 904.7016 904.7016
-69.179184 -167.9252 933.3949 933.3949
-28.013092 -81.909119 932.98804 932.98804
-92.788506 -93.827286 900.45154 900.45154
-35.738388 -101.0774 923.38873 923.38873
-146.87897 -99.519585 911.67035 911.67035
-52.326782 -41.616959 934.28333 934.28333
-71.094025 -53.804123 916.15259 916.15259
-143.0842 -25.65889 948.84192 948.84192
-84.168716 -134.69765 907.55841 907.55841
-26.543732 -47.89064 956.53979 956.53979
-66.71608 -147.36493 918.46014 918.46014
-88.433456 -84.188911 901.93762 901.93762
-173.1561 -60.188232 944.65375 944.65375
-88.675247 -156.9646 918.59497 918.59497
-117.67355 -145.97058 912.96924 912.96924
-63.713455 -147.32845 919.7298 919.7298
-69.555115 -178.90952 946.64838 946.64838
-110.72309 -22.375031 937.8761 937.8761
-77.113251 -21.34549 942.64441 942.64441
-76.374313 -11.986267 958.82465 958.82465
-55.785904 -11.903732 983.14288 983.14288
-109.93436 -110.90091 901.09357 901.09357
-61.636963 -106.57357 907.88556 907.88556
-20.44136 -111.3755 940.49353 940.49353
-113.86971 -3.4791565 977.83344 977.83344
-82.883163 -40.315063 921.61169 921.61169
-104.86053 -125.18119 903.34448 903.34448
-94.741295 -196.45439 974.13696 974.13696
-90.019737 -27.530701 931.8194 931.8194
-81.790649 -116.61773 903.0863 903.0863
-24.665085 -58.534653 948.95813 948.95813
-80.050301 -193.71478 971.37225 971.37225
-75.870255 -57.016296 912.99335 912.99335
-144.37993 -14.334839 973.69598 973.69598
-84.494469 -90.42276 901.67474 901.67474
-46.766571 -28.955383 953.96887 953.96887
-198.44641 -83.771431 993.29645 993.29645
-126.66541 -188.91547 962.81134 962.81134
-34.171478 -91.767166 925.17468 925.17468
-45.057419 -134.29593 923.80878 923.80878
-47.404861 -108.48697 915.37305 915.37305
-50.838547 -97.302269 912.96051 912.96051
-106.69186 -187.31693 951.71985 951.71985
-138.94333 -177.52225 950.26349 950.26349
-101.48022 -84.457336 901.22632 901.22632
-104.38785 -174.47757 933.4129 933.4129
-84.27951 -186.39458 952.15814 952.15814
-94.013992 -141.44266 909.18878 909.18878
-184.87228 -59.095093 966.48157 966.48157
-86.724876 -106.00555 901.0672 901.0672
-74.900803 -110.00902 903.71997 903.71997
-128.42813 -178.1286 944.43237 944.43237
-78.630783 -11.981293 957.62 957.62
-72.061218 -41.681091 923.72205 923.72205
-161.22621 -89.577362 921.62451 921.62451
-22.060074 -112.84452 938.67804 938.67804
-151.30688 -63.62468 922.25403 922.25403
-102.243 -55.366074 910.54175 910.54175
-129.51959 -113.06194 905.35339 905.35339
-69.016266 -134.64944 911.45947 911.45947
-15.69249 -92.721664 946.71521 946.71521
-129.73531 -14.424133 957.66107 957.66107
-98.675774 -181.97986 942.75012 942.75012
-22.014572 -43.743774 972.54987 972.54987
-45.712692 -113.71415 917.14587 917.14587
-58.797165 -146.52927 921.65875 921.65875
-129.49976 -46.850616 920.59656 920.59656
-97.58905 -44.218689 917.03839 917.03839
-191.01993 -112.07832 960.38324 960.38324
-143.57611 -74.037239 913.81964 913.81964
-139.89163 -74.834526 911.82202 911.82202
-129.50748 -60.527802 912.98706 912.98706
-131.1102 -116.44109 906.39526 906.39526
-133.08255 -171.08194 937.92822 937.92822
-152.43896 -85.655991 916.06903 916.06903
-36.941071 -104.83469 922.53906 922.53906
-85.565857 -73.267273 904.72662 904.72662
-160.66138 -86.089302 921.72681 921.72681
-130.84067 -90.409019 905.35925 905.35925
-102.88857 -156.54858 917.57483 917.57483
-99.382141 -66.348343 905.83429 905.83429
-128.22 -46.208435 920.56384 920.56384
-118.13319 -62.301117 909.17059 909.17059
-59.293808 -154.96713 927.05054 927.05054
-136.29279 -145.97028 918.94714 918.94714
-30.963089 -115.76192 929.39215 929.39215
-39.046295 -118.92615 923.0166 923.0166
-92.783714 -71.270782 904.48792 904.48792
-173.71497 -152.40137 957.33618 957.33618
-100.33228 -132.15739 905.31213 905.31213
-187.38985 -144.25244 979.88196 979.88196
-47.67334 -138.96962 924.21552 924.21552
-24.31868 -69.306213 942.29187 942.29187
-87.012825 -191.86966 962.69989 962.69989
-28.811661 -168.97069 986.76123 986.76123
-84.672371 -48.615082 915.59235 915.59235
-128.63766 -26.491501 938.54773 938.54773
-103.49634 -90.65461 900.49902 900.49902
-101.95189 -3.0153961 975.70642 975.70642
-179.46013 -85.360893 941.07813 941.07813
-93.440987 -99.871063 900.21539 900.21539
-96.175453 -105.3553 900.2168 900.2168
-117.35706 -175.05438 936.23816 936.23816
-20.302368 -79.900429 943.04126 943.04126
-26.765121 -63.941605 942.23804 942.23804
-195.31841 -91.682579 970.92731 970.92731
-36.428604 -115.65265 924.41113 924.41113
-140.31107 -43.876297 927.71484 927.71484
-193.57562 -96.911606 964.87073 964.87073
-199.06599 -99.307724 986.38202 986.38202
-24.712051 -118.46544 936.82758 936.82758
-112.10872 -55.010498 911.51654 911.51654
-136.31914 -14.804153 962.28278 962.28278
-88.165703 -17.769379 944.33966 944.33966
-147.83621 -33.493347 942.65399 942.65399
-66.932327 -155.27856 923.5094 923.5094
-137.3071 -67.445053 913.11871 913.11871
-148.34518 -59.47316 922.4093 922.4093
-15.126602 -147.91948 977.63422 977.63422
-139.92279 -127.02898 912.38947 912.38947
-104.0681 -66.240326 905.95886 905.95886
-143.37418 -95.776657 909.9953 909.9953
-95.658241 -24.232025 934.88196 934.88196
-79.487907 -124.97486 905.36646 905.36646
-37.79509 -174.53638 976.02338 976.02338
-186.56677 -148.33899 986.97937 986.97937
-85.304489 -152.22018 915.99347 915.99347
-119.99535 -141.61551 911.29639 911.29639
-94.35083 -158.31424 918.95966 918.95966
-44.162445 -39.742218 942.98102 942.98102
-155.75504 -155.62114 938.37482 938.37482
-72.283875 -178.35941 944.39764 944.39764
-49.123428 -180.60988 969.7738 969.7738
-172.95674 -50.058121 953.27612 953.27612
-149.8511 -25.413757 955.82129 955.82129
-103.32417 -143.63103 910.08179 910.08179
-9.1647186 -82.577286 961.98157 961.98157
-47.579895 -22.729248 964.20386 964.20386
-34.699814 -119.20327 926.73938 926.73938
-173.55042 -91.132545 932.83081 932.83081
-135.26242 -122.48707 909.16559 909.16559
-149.60271 -117.56174 914.96381 914.96381
-123.56489 -62.95462 910.15381 910.15381
-149.48996 -56.433685 924.81543 924.81543
-100.29765 -156.95532 917.80511 917.80511
-1.8783875 -96.504272 981.0282 981.0282
-141.02849 -73.763405 912.65985 912.65985
-113.72076 -120.89581 903.17487 903.17487
-86.672211 -84.235931 902.15387 902.15387
-160.98074 -74.755348 924.87305 924.87305
-89.589622 -9.850174 957.99249 957.99249
-172.4758 -131.05038 938.49286 938.49286
-57.178329 -135.8613 917.05261 917.05261
-64.775436 -102.0078 906.43079 906.43079
-13.342072 -123.77735 956.12469 956.12469
-125.56666 -192.83826 973.0296 973.0296
-199.64777 -98.294617 991.78937 991.78937
-152.99698 -170.9671 953.57813 953.57813
-184.34142 -65.570923 958.75482 958.75482
-147.61884 -112.9882 913.03015 913.03015
-174.59735 -68.648407 941.24359 941.24359
-175.15233 -124.97221 938.93842 938.93842
-107.67774 -56.133987 910.46326 910.46326
-13.135498 -71.171753 959.70746 959.70746
-55.009262 -73.626305 914.67554 914.67554
-149.39459 -113.44255 914.09613 914.09613
-128.07275 -135.088 910.66492 910.66492
-118.81673 -131.09427 906.83844 906.83844
-80.341431 -114.76055 903.06873 903.06873
-86.22348 -173.09781 933.16498 933.16498
-50.796646 -171.59917 950.47638 950.47638
-108.47036 -97.012138 900.40417 900.40417
-138.68123 -84.387733 909.11536 909.11536
-133.80875 -183.92598 957.41595 957.41595
-176.07401 -47.960007 961.211 961.211
-106.1953 -29.551178 929.29938 929.29938
-169.6927 -132.53824 936.09235 936.09235
-188.34882 -126.60955 961.44592 961.44592
-77.481148 -184.33258 951.20538 951.20538
-110.9442 -155.39659 917.46851 917.46851
-135.92621 -176.14372 946.04224 946.04224
-170.30011 -94.301331 929.1098 929.1098
-53.300873 -72.397362 915.99237 915.99237
-124.64911 -69.902725 907.87738 907.87738
