# .PCD v0.7 - Point Cloud Data file format
VERSION 0.7
FIELDS x y z intensity
SIZE 4 4 4 4
TYPE F F F F
COUNT 1 1 1 1
WIDTH 1164
HEIGHT 1
VIEWPOINT 0 0 0 1 0 0 0
POINTS 1164
DATA ascii
-108.79642 -83.870049 896.2558 896.2558
-84.813118 85.006119 899.56866 899.56866
-128.7545 -56.6689 872.78723 872.78723
-109.29955 54.388397 866.60083 866.60083
-47.024994 4.5976028 865.30933 865.30933
-99.331894 -52.255932 864.74231 864.74231
-71.683594 -81.554092 899.53107 899.53107
-167.27109 4.94133 876.17462 876.17462
-142.81587 -53.111694 876.88403 876.88403
-141.54645 12.634514 859.92078 859.92078
-150.34955 84.809296 933.49829 933.49829
-166.5363 -15.421486 876.95825 876.95825
-34.781052 -73.526245 931.5506 931.5506
-99.949181 76.329239 885.39471 885.39471
-158.57111 28.59848 874.16101 874.16101
-87.489761 -39.484638 858.98102 858.98102
-124.59011 -46.14415 864.75891 864.75891
-199.17711 4.2903442 937.93793 937.93793
-96.966194 -27.041634 853.77344 853.77344
-79.135277 56.341705 870.06079 870.06079
-76.158501 -71.516197 884.29602 884.29602
-42.591476 53.268616 887.81708 887.81708
-179.23225 -33.299568 898.87866 898.87866
-25.148804 -43.230595 899.71667 899.71667
-194.67064 -14.475601 921.22626 921.22626
-65.705032 -0.060691833 856.06464 856.06464
-23.677902 -46.99461 905.6554 905.6554
-45.388275 -70.205826 904.29767 904.29767
-8.2637177 19.271828 915.17114 915.17114
-34.046677 -63.557484 909.86768 909.86768
-96.247292 -75.582191 884.62988 884.62988
-179.74939 -21.464325 893.61456 893.61456
-31.178543 61.673782 911.79071 911.79071
-37.0504 38.315613 882.40369 882.40369
-47.218811 15.069473 866.41138 866.41138
-126.62972 -90.674309 917.30402 917.30402
-66.576965 -11.651886 856.47388 856.47388
-57.55426 -54.797546 877.91956 877.91956
-83.056686 25.122414 854.7016 854.7016
-69.179184 -67.925201 883.3949 883.3949
-28.013092 18.090881 882.98804 882.98804
-92.788506 6.1727142 850.45154 850.45154
-35.738388 -1.0774002 873.38873 873.38873
-146.87897 0.48041534 861.67035 861.67035
-52.326782 58.383041 884.28333 884.28333
-71.094025 46.195877 866.15259 866.15259
-143.0842 74.34111 898.84192 898.84192
-84.168716 -34.697647 857.55841 857.55841
-26.543732 52.10936 906.53979 906.53979
-66.71608 -47.364925 868.46014 868.46014
-88.433456 15.811089 851.93762 851.93762
-173.1561 39.811768 894.65375 894.65375
-88.675247 -56.9646 868.59497 868.59497
-117.67355 -45.970581 862.96924 862.96924
-63.713455 -47.328442 869.7298 869.7298
-69.555115 -78.909523 896.64838 896.64838
-110.72309 77.624969 887.8761 887.8761
-77.113251 78.65451 892.64441 892.64441
-76.374313 88.013733 908.82465 908.82465
-55.785904 88.096268 933.14288 933.14288
-109.93436 -10.900909 851.09357 851.09357
-61.636963 -6.5735703 857.88556 857.88556
-20.44136 -11.375496 890.49353 890.49353
-113.86971 96.520844 927.83344 927.83344
-82.883163 59.684937 871.61169 871.61169
-104.86053 -25.18119 853.34448 853.34448
-94.741295 -96.454391 924.13696 924.13696
-90.019737 72.469299 881.8194 881.8194
-81.790649 -16.617729 853.0863 853.0863
-24.665085 41.465347 898.95813 898.95813
-80.050301 -93.71479 921.37225 921.37225
-75.870255 42.983704 862.99335 862.99335
-144.37993 85.665161 923.69598 923.69598
-84.494469 9.57724 851.67474 851.67474
-46.766571 71.044617 903.96887 903.96887
-198.44641 16.228569 943.29645 943.29645
-126.66541 -88.915474 912.8114 912.8114
-34.171478 8.2328339 875.17468 875.17468
-45.057419 -34.295921 873.80878 873.80878
-47.404861 -8.486969 865.37305 865.37305
-50.838547 2.697731 862.96051 862.96051
-106.69186 -87.316925 901.71985 901.71985
-138.94333 -77.522247 900.26349 900.26349
-101.48022 15.542664 851.22632 851.22632
-104.38785 -74.477562 883.4129 883.4129
-84.27951 -86.394585 902.15814 902.15814
-94.013992 -41.442657 859.18878 859.18878
-184.87228 40.904907 916.48157 916.48157
-86.724876 -6.0055466 851.0672 851.0672
-74.900803 -10.009018 853.71997 853.71997
-128.42813 -78.128593 894.43237 894.43237
-78.630783 88.018707 907.62 907.62
-72.061218 58.318909 873.72205 873.72205
-161.22621 10.422638 871.62451 871.62451
-22.060074 -12.844521 888.67804 888.67804
-151.30688 36.37532 872.25403 872.25403
-102.243 44.633926 860.54175 860.54175
-129.51959 -13.061943 855.35339 855.35339
-69.016266 -34.649437 861.45947 861.45947
-15.69249 7.2783356 896.71521 896.71521
-129.73531 85.575867 907.66107 907.66107
-98.675774 -81.979851 892.75012 892.75012
-22.014572 56.256226 922.54987 922.54987
-45.712692 -13.714149 867.14587 867.14587
-58.797165 -46.529263 871.65875 871.65875
-129.49976 53.149384 870.59656 870.59656
-97.58905 55.781311 867.03839 867.03839
-191.01993 -12.078323 910.38324 910.38324
-143.57611 25.962761 863.81964 863.81964
-139.89163 25.165474 861.82202 861.82202
-129.50748 39.472198 862.98706 862.98706
-131.1102 -16.441086 856.39526 856.39526
-133.08255 -71.08194 887.92822 887.92822
-152.43896 14.344009 866.06903 866.06903
-36.941071 -4.8346863 872.53906 872.53906
-85.565857 26.732727 854.72662 854.72662
-160.66138 13.910698 871.72681 871.72681
-130.84067 9.5909805 855.35925 855.35925
-102.88857 -56.548584 867.57483 867.57483
-99.382141 33.651657 855.83429 855.83429
-128.22 53.791565 870.56384 870.56384
-118.13319 37.698883 859.17059 859.17059
-59.293808 -54.967136 877.05054 877.05054
-136.29279 -45.97028 868.94714 868.94714
-30.963089 -15.761925 879.39215 879.39215
-39.046295 -18.926147 873.0166 873.0166
-92.783714 28.729218 854.48792 854.48792
-173.71497 -52.401371 907.33618 907.33618
-100.33228 -32.157394 855.31213 855.31213
-187.38985 -44.252438 929.88196 929.88196
-47.67334 -38.96962 874.21552 874.21552
-24.31868 30.693787 892.29187 892.29187
-87.012825 -91.869659 912.69989 912.69989
-28.811661 -68.970688 936.76123 936.76123
-84.672371 51.384918 865.59235 865.59235
-128.63766 73.508499 888.54773 888.54773
-103.49634 9.3453903 850.49902 850.49902
-101.95189 96.984604 925.70642 925.70642
-179.46013 14.639107 891.07813 891.07813
-93.440987 0.12893677 850.21539 850.21539
-96.175453 -5.3553009 850.2168 850.2168
-117.35706 -75.054375 886.23816 886.23816
-20.302368 20.099571 893.04126 893.04126
-26.765121 36.058395 892.23804 892.23804
-195.31841 8.317421 920.92731 920.92731
-36.428604 -15.652649 874.41113 874.41113
-140.31107 56.123703 877.71484 877.71484
-193.57562 3.0883942 914.87073 914.87073
-199.06599 0.692276 936.38202 936.38202
-24.712051 -18.465439 886.82758 886.82758
-112.10872 44.989502 861.51654 861.51654
-136.31914 85.195847 912.28278 912.28278
-88.165703 82.230621 894.33966 894.33966
-147.83621 66.506653 892.65399 892.65399
-66.932327 -55.278564 873.5094 873.5094
-137.3071 32.554947 863.11871 863.11871
-148.34518 40.52684 872.4093 872.4093
-15.126602 -47.919476 927.63416 927.63416
-139.92279 -27.028976 862.38947 862.38947
-104.0681 33.759674 855.95886 855.95886
-143.37418 4.2233429 859.9953 859.9953
-95.658241 75.767975 884.88196 884.88196
-79.487907 -24.974861 855.36646 855.36646
-37.79509 -74.536377 926.02338 926.02338
-186.56677 -48.338997 936.97943 936.97943
-85.304489 -52.220177 865.99347 865.99347
-119.99535 -41.615505 861.29639 861.29639
-94.35083 -58.314247 868.95966 868.95966
-44.162445 60.257782 892.98102 892.98102
-155.75504 -55.62114 888.37482 888.37482
-72.283875 -78.359398 894.39764 894.39764
-49.123428 -80.609871 919.7738 919.7738
-172.95674 49.941879 903.27612 903.27612
-149.8511 74.586243 905.82129 905.82129
-103.32417 -43.631027 860.08179 860.08179
-9.1647186 17.422714 911.98157 911.98157
-47.579895 77.270752 914.20386 914.20386
-34.699814 -19.20327 876.73938 876.73938
-173.55042 8.8674545 882.83081 882.83081
-135.26242 -22.487068 859.16559 859.16559
-149.60271 -17.561737 864.96381 864.96381
-123.56489 37.04538 860.15381 860.15381
-149.48996 43.566315 874.81543 874.81543
-100.29765 -56.95533 867.80511 867.80511
-1.8783875 3.4957275 931.0282 931.0282
-141.02849 26.236595 862.65985 862.65985
-113.72076 -20.895805 853.17487 853.17487
-86.672211 15.764069 852.15387 852.15387
-160.98074 25.244652 874.87305 874.87305
-89.589622 90.149826 907.99249 907.99249
-172.4758 -31.050392 888.49286 888.49286
-57.178329 -35.86129 867.05261 867.05261
-64.775436 -2.0077972 856.43079 856.43079
-13.342072 -23.777351 906.12469 906.12469
-125.56666 -92.838249 923.02954 923.02954
-199.64777 1.7053833 941.78937 941.78937
-152.99698 -70.967102 903.57813 903.57813
-184.34142 34.429077 908.75482 908.75482
-147.61884 -12.988205 863.03015 863.03015
-174.59735 31.351593 891.24359 891.24359
-175.15233 -24.972214 888.93842 888.93842
-107.67774 43.866013 860.46326 860.46326
-13.135498 28.828247 909.70746 909.70746
-55.009262 26.373695 864.67554 864.67554
-149.39459 -13.442551 864.09613 864.09613
-128.07275 -35.087997 860.66492 860.66492
-118.81673 -31.094276 856.83844 856.83844
-80.341431 -14.760551 853.06873 853.06873
-86.22348 -73.097816 883.16504 883.16504
-50.796646 -71.599167 900.47638 900.47638
-108.47036 2.9878616 850.40417 850.40417
-138.68123 15.612267 859.11536 859.11536
-133.80875 -83.92598 907.41595 907.41595
-176.07401 52.039993 911.211 911.211
-106.1953 70.448822 879.29938 879.29938
-169.6927 -32.538246 886.09235 886.09235
-188.34882 -26.60955 911.44592 911.44592
-77.481148 -84.332581 901.20538 901.20538
-110.9442 -55.396591 867.46851 867.46851
-135.92621 -76.143715 896.04224 896.04224
-170.30011 5.6986694 879.1098 879.1098
-53.300873 27.602638 865.99237 865.99237
-124.64911 30.097275 857.87738 857.87738
-104.31905 -50.485531 863.78772 863.78772
-103.21228 31.204651 855.04761 855.04761
-177.15741 -58.39967 924.77673 924.77673
-40.351379 25.921143 874.03857 874.03857
-15.389877 -28.425079 904.90961 904.90961
-104.62143 12.225166 850.85773 850.85773
-185.51299 -12.566643 899.70477 899.70477
-78.749016 -35.260757 858.8678 858.8678
-117.10747 -28.777 855.77039 855.77039
-119.70697 -39.033108 860.06641 860.06641
-85.510361 31.678009 856.26337 856.26337
-114.43795 59.990051 871.30603 871.30603
-191.93031 14.653412 913.47473 913.47473
-59.815109 62.835678 883.39032 883.39032
-116.31201 -5.9663773 851.51996 851.51996
-117.44331 88.419479 906.66724 906.66724
-186.03746 7.5793381 899.60052 899.60052
-47.313141 -13.92347 866.1535 866.1535
-65.690781 -20.068451 858.23871 858.23871
-193.51636 -3.8320541 914.78625 914.78625
-147.62474 18.981567 864.14209 864.14209
-186.0009 14.539627 901.0874 901.0874
-145.28868 27.944687 865.33582 865.33582
-186.99484 7.7492218 901.2984 901.2984
-52.021835 -11.787628 863.05664 863.05664
-87.686195 48.605011 863.47876 863.47876
-168.39894 39.101135 888.41522 888.41522
-2.8572845 -11.766441 929.38824 929.38824
-137.84331 80.237991 903.85077 903.85077
-34.836655 10.928047 874.93793 874.93793
-109.89608 -92.794067 914.06494 914.06494
-101.51246 77.263672 886.5332 886.5332
-171.27835 -55.84573 907.56592 907.56592
-87.209404 65.161865 875.23145 875.23145
-120.10764 -94.680336 924.87396 924.87396
-159.61189 -60.884464 897.65973 897.65973
-123.98978 28.492935 857.19568 857.19568
-167.07162 -6.4475861 876.10938 876.10938
-155.99745 14.861465 868.4928 868.4928
-161.17517 33.631592 878.40033 878.40033
-82.452393 -80.890381 893.88556 893.88556
-52.19986 57.458588 883.56464 883.56464
-42.506226 27.2948 872.86725 872.86725
-188.60513 -13.994476 905.80402 905.80402
-95.497849 -25.088242 853.30298 853.30298
-115.16749 61.194199 872.37775 872.37775
-154.11023 59.905762 890.9798 890.9798
-41.262573 20.226669 871.63678 871.63678
-145.91052 -21.493134 863.80103 863.80103
-77.824127 49.304672 865.87341 865.87341
-24.24826 -52.577255 911.30493 911.30493
-127.69398 92.461044 923.84662 923.84662
-81.870796 41.265579 860.73364 860.73364
-49.388519 -65.361221 893.72931 893.72931
-24.283371 18.867836 887.46204 887.46204
-102.72666 49.405365 863.09961 863.09961
-14.862488 -6.4809036 897.94617 897.94617
-128.16629 17.035423 855.573 855.573
-164.39944 74.907059 934.45508 934.45508
-134.56322 56.698593 875.22931 875.22931
-163.35825 -3.6392517 872.71814 872.71814
-87.634346 -49.639637 864.07562 864.07562
-105.45734 -11.968002 850.86884 850.86884
-89.703903 54.573868 866.83942 866.83942
-107.19707 70.01944 878.96844 878.96844
-187.08591 -7.9733276 901.49774 901.49774
-147.79939 -25.723511 866.01477 866.01477
-49.300461 -33.55217 870.60345 870.60345
-66.633713 56.656235 874.6557 874.6557
-125.44135 34.899399 859.80701 859.80701
-145.76811 -68.919373 893.82703 893.82703
-156.77069 19.712662 870.0719 870.0719
-31.428223 -60.823296 910.01953 910.01953
-76.921669 93.661072 923.63727 923.63727
-170.15904 2.3294678 878.78003 878.78003
-132.72874 -55.693359 873.66467 873.66467
-83.640167 -22.977669 854.06055 854.06055
-93.090042 47.230804 862.12793 862.12793
-22.945038 -54.077553 916.26349 916.26349
-87.003502 11.908409 851.56586 851.56586
-137.78778 82.121307 907.24286 907.24286
-187.05901 -5.3418732 901.08997 901.08997
-153.47 -0.28514099 865.49628 865.49628
-157.06851 -67.224075 902.83954 902.83954
-124.57862 52.947235 868.80591 868.80591
-89.537285 83.890991 896.58807 896.58807
-3.1940155 -23.767441 942.01813 942.01813
-115.46164 77.591522 888.84045 888.84045
-76.976349 26.786896 856.44586 856.44586
-122.61504 -40.358509 861.34479 861.34479
-59.255524 8.5698395 859.08002 859.08002
-159.35564 64.442093 901.79083 901.79083
-28.763382 24.994705 884.42096 884.42096
-74.765656 46.143555 864.94708 864.94708
-35.913437 -32.997063 880.68835 880.68835
-145.71597 11.472061 861.8045 861.8045
-48.022659 -56.201405 885.65906 885.65906
-3.4952087 24.664291 941.14008 941.14008
-65.894455 41.629059 865.71576 865.71576
-94.947182 61.242889 871.10907 871.10907
-126.97168 -4.7103348 853.82129 853.82129
-75.783066 95.153885 931.04535 931.04535
-101.60882 -49.351757 863.04132 863.04132
-84.594833 40.409363 859.83478 859.83478
-12.176483 36.498657 919.09888 919.09888
-89.618454 43.425385 860.52118 860.52118
-112.64111 31.257233 855.85547 855.85547
-112.99376 -14.460686 851.90796 851.90796
-84.325073 -36.197914 858.1087 858.1087
-124.01501 3.8418655 853.0025 853.0025
-65.212616 36.679962 863.71893 863.71893
-43.552399 -17.653969 869.36499 869.36499
-134.63504 51.110306 871.33521 871.33521
-34.470779 15.185974 876.0047 876.0047
-188.2639 24.860641 910.10724 910.10724
-32.005829 25.865082 881.38666 881.38666
-74.843979 -9.0330276 853.63831 853.63831
-78.725792 -67.663574 879.50854 879.50854
-133.94424 3.6700287 856.00891 856.00891
-192.90445 -6.7292786 913.62036 913.62036
-122.14457 -82.767426 898.43286 898.43286
-142.6279 58.538788 881.03571 881.03571
-33.506149 -0.60578918 875.31262 875.31262
-121.42264 -54.127556 868.69025 868.69025
-116.60828 74.267685 885.12726 885.12726
-2.0198212 -5.5569611 930.79053 930.79053
-99.615837 37.20842 857.18091 857.18091
-162.83131 28.959671 877.79498 877.79498
-99.279831 -83.215088 894.54974 894.54974
-146.44687 -18.248108 863.34149 863.34149
-21.014755 58.501221 931.58972 931.58972
-113.60911 -58.544136 870.07892 870.07892
-126.48102 54.95842 870.7641 870.7641
-33.560913 -68.784065 920.76648 920.76648
-32.4729 65.753159 916.58423 916.58423
-126.72237 50.765198 868.09265 868.09265
-58.082565 72.533722 895.39423 895.39423
-124.6993 20.836136 855.36493 855.36493
-123.81181 -18.028381 854.56427 854.56427
-110.86672 96.682434 926.88245 926.88245
-81.180511 -60.965965 873.00012 873.00012
-65.360153 71.338959 889.08337 889.08337
-124.98434 -76.658081 890.84497 890.84497
-162.66426 32.45755 879.15015 879.15015
-82.316711 14.635696 852.67017 852.67017
-70.268051 86.496872 909.57349 909.57349
-176.25993 49.949387 908.89673 908.89673
-116.18665 38.310165 859.05865 859.05865
-112.65658 75.369019 885.5072 885.5072
-55.202744 -54.882915 879.42328 879.42328
-82.572807 -32.385406 857.00818 857.00818
-146.2262 -49.245476 876.25708 876.25708
-182.67123 39.273041 909.71234 909.71234
-63.409363 -84.796707 911.651 911.651
-55.999298 -45.094955 872.34448 872.34448
-174.73032 -58.834366 919.11475 919.11475
-75.257912 63.66246 876.95947 876.95947
-136.84718 73.335312 892.8667 892.8667
-73.920441 -2.3297577 853.48871 853.48871
-91.251907 -56.376686 867.87122 867.87122
-171.41635 45.793457 897.05981 897.05981
-60.126251 -63.453957 883.79065 883.79065
-72.265533 18.369766 855.69543 855.69543
-46.306046 9.8522873 866.21521 866.21521
-70.931976 -47.774738 867.09869 867.09869
-68.410324 41.77977 864.81464 864.81464
-75.476898 -69.571945 882.48438 882.48438
-166.28535 27.420128 880.32654 880.32654
-170.86998 23.002625 883.30426 883.30426
-130.36665 -53.845146 871.39612 871.39612
-130.28873 -15.823105 856.02008 856.02008
-84.455383 93.624695 918.49158 918.49158
-12.755081 46.248398 934.20728 934.20728
-60.542816 -81.421181 907.41217 907.41217
-71.006805 -36.050522 861.34473 861.34473
-166.91759 47.161057 892.57288 892.57288
-8.4281158 21.490692 916.04797 916.04797
-10.996948 -10.093597 905.54132 905.54132
-66.492493 -62.757027 879.72339 879.72339
-120.76562 -62.924122 875.10443 875.10443
-163.53281 -52.919926 893.75885 893.75885
-137.78809 21.571396 859.96259 859.96259
-72.858086 -39.991688 862.45581 862.45581
-128.69238 -56.04023 872.30676 872.30676
-102.98379 10.010216 850.54706 850.54706
-103.54915 6.3764572 850.2666 850.2666
-125.00661 88.242035 910.15015 910.15015
-40.410156 -68.347969 907.83832 907.83832
-79.64212 -79.595352 892.99005 892.99005
-16.26207 15.633141 897.62097 897.62097
-96.846115 -27.5504 853.92175 853.92175
-147.14639 -86.835495 934.61121 934.61121
-109.04855 -64.437996 874.06671 874.06671
-38.553452 43.822128 884.39557 884.39557
-81.466614 -49.684723 865.21826 865.21826
-166.49258 -2.2504883 875.34296 875.34296
-54.302612 77.980988 907.21313 907.21313
-187.90352 39.226059 922.90228 922.90228
-48.352951 75.718613 910.00909 910.00909
-67.386597 27.016068 859.41028 859.41028
-170.0607 24.529861 882.99414 882.99414
-14.690277 -36.407082 912.62653 912.62653
-104.18514 88.119583 902.91046 902.91046
-130.41164 -52.111511 870.25342 870.25342
-106.40311 -79.040535 889.07715 889.07715
-12.320084 9.3519363 902.83252 902.83252
-93.267128 63.197968 872.79456 872.79456
-187.46342 -43.673843 928.9585 928.9585
-126.3463 -1.8969421 853.5517 853.5517
-55.800446 -62.888737 886.03589 886.03589
-187.03078 -11.578438 902.12952 902.12952
-84.78302 -97.566154 934.21112 934.21112
-106.83319 -73.955437 883.03809 883.03809
-192.4313 27.265083 923.29663 923.29663
-124.26495 -9.1793365 853.42383 853.42383
-122.42705 77.418518 890.81049 890.81049
-65.08786 84.122833 908.71454 908.71454
-125.22426 69.905167 883.0896 883.0896
-161.42334 45.208328 885.32092 885.32092
-146.50581 55.257538 880.8349 880.8349
-194.41681 -8.4297409 918.15027 918.15027
-152.66238 -11.016891 865.70703 865.70703
-37.080032 -49.980309 890.4765 890.4765
-133.46646 22.360123 858.45752 858.45752
-156.54947 56.518433 889.93481 889.93481
-136.01514 -24.510101 859.98798 859.98798
-103.36411 -16.216286 851.38098 851.38098
-122.64236 -80.012344 894.4541 894.4541
-35.414139 -16.464539 875.45081 875.45081
-143.28015 -67.01757 889.70514 889.70514
-52.851913 39.893295 871.3515 871.3515
-68.192978 -71.878471 888.17932 888.17932
-122.94179 82.494873 898.34473 898.34473
-128.43747 -29.184425 858.67871 858.67871
-180.06461 49.055954 915.60272 915.60272
-123.07172 -3.1518326 852.74896 852.74896
-88.839111 -68.174881 877.69769 877.69769
-58.357925 60.060364 881.74542 881.74542
-180.73528 29.681595 899.00177 899.00177
-160.66113 23.245964 873.97467 873.97467
-114.51999 42.147797 860.48615 860.48615
-158.23621 76.560562 922.66827 922.66827
-114.38387 52.938431 866.39001 866.39001
-68.940872 -77.820412 895.41693 895.41693
-10.150894 -17.540184 909.7572 909.7572
-133.11555 -34.646469 862.23334 862.23334
-117.1077 12.483002 852.26819 852.26819
-114.38219 -33.596581 856.91711 856.91711
-44.698257 39.784286 876.79529 876.79529
-43.10759 -68.506638 904.50171 904.50171
-128.47681 -1.3481216 854.14984 854.14984
-9.8457184 11.812057 908.37451 908.37451
-85.890175 -64.58535 874.96906 874.96906
-162.8627 2.0389099 872.25604 872.25604
-85.599342 -38.246197 858.73199 858.73199
-146.24399 -32.701859 867.58594 867.58594
-174.35304 -31.717491 891.13043 891.13043
-187.95927 8.1551285 903.13147 903.13147
-163.43355 -9.713974 873.30695 873.30695
-108.73106 -21.555008 852.74182 852.74182
-56.6604 38.860123 868.68842 868.68842
-72.669365 83.318909 901.92719 901.92719
-87.723282 -70.659599 880.3114 880.3114
-127.15752 -72.85247 887.11133 887.11133
-80.893257 -29.682014 856.43768 856.43768
-153.26578 -84.19252 941.37579 941.37579
-192.16646 -38.733208 947.74567 947.74567
-134.0751 39.498978 864.68457 864.68457
-53.776001 -11.809174 862.11438 862.11438
-125.63667 70.395386 883.76367 883.76367
-63.168869 18.507133 858.89044 858.89044
-134.53471 -89.433487 921.55701 921.55701
-133.36609 82.773346 904.88593 904.88593
-188.70976 39.990952 926.95001 926.95001
-80.947853 77.625229 889.90558 889.90558
-149.0118 16.716614 864.45239 864.45239
-88.997734 60.56102 871.18811 871.18811
-176.79828 41.771271 901.44916 901.44916
-36.682159 50.218781 891.10242 891.10242
-168.96657 19.97155 880.39575 880.39575
-189.3875 29.486237 916.22961 916.22961
-107.04301 17.333069 851.76581 851.76581
-93.706047 57.548447 868.4613 868.4613
-46.074341 66.926651 898.88397 898.88397
-137.06967 -48.737099 870.9397 870.9397
-166.78262 -52.116608 896.85925 896.85925
-93.861176 -78.89283 888.85889 888.85889
-161.9724 2.1772995 871.54822 871.54822
-146.21698 -2.5095367 861.35638 861.35638
-133.81084 67.055496 883.9668 883.9668
-146.69067 49.135147 876.47644 876.47644
-177.25943 -42.072952 902.45166 902.45166
-121.34045 5.1879425 852.44147 852.44147
-112.60574 -52.675549 865.93823 865.93823
-138.45831 88.19838 922.76025 922.76025
-176.30759 43.110001 901.84735 901.84735
-76.487396 -50.2183 866.78174 866.78174
-57.508942 -21.222595 861.99939 861.99939
-162.41205 57.11499 896.68384 896.68384
-5.6995544 -14.61972 920.10535 920.10535
-91.742722 3.2759933 850.39539 850.39539
-91.436348 -39.080162 858.35175 858.35175
-62.947113 29.184219 861.82196 861.82196
-10.641144 -34.606972 921.41064 921.41064
-135.158 -1.7814484 856.40118 856.40118
-68.089264 40.679733 864.40289 864.40289
-131.18112 31.92688 860.51025 860.51025
-33.186615 48.75676 893.79724 893.79724
-137.13145 5.3690567 857.30463 857.30463
-16.301086 33.849854 907.00372 907.00372
-92.516754 89.23526 905.49078 905.49078
-92.804398 -63.642635 873.20264 873.20264
-91.417908 31.79126 855.57721 855.57721
-27.93428 38.710403 892.48444 892.48444
-61.960785 88.502731 923.16187 923.16187
-145.30904 64.371033 888.32776 888.32776
-95.108887 -87.146713 901.1991 901.1991
-91.606667 -39.577805 858.54974 858.54974
-101.69562 -14.201584 851.02808 851.02808
-171.05408 -18.509636 882.11249 882.11249
-121.75242 87.741089 907.24097 907.24097
-33.860474 -0.11141205 874.99634 874.99634
-92.243614 94.347458 917.77582 917.77582
-185.99911 49.28363 936.7608 936.7608
-85.915817 51.961472 865.72876 865.72876
-156.55806 -30.190208 873.25537 873.25537
-137.39781 -28.157738 861.63403 861.63403
-66.157288 24.493683 859.14447 859.14447
-142.46658 73.946487 897.76489 897.76489
-35.944885 54.473434 895.87433 895.87433
-136.6553 38.917526 865.49072 865.49072
-125.44254 7.0331421 853.54688 853.54688
-56.228638 74.294403 899.35999 899.35999
-149.28738 65.63324 892.87708 892.87708
-21.45845 -7.0323563 888.50391 888.50391
-94.612099 49.203934 863.10962 863.10962
-141.90738 -23.738777 862.36304 862.36304
-85.497078 -22.775879 853.71436 853.71436
-149.67609 17.318466 864.95673 864.95673
-147.4828 -29.383728 867.0423 867.0423
-49.037109 81.772537 923.24115 923.24115
-181.48933 43.434189 911.62085 911.62085
-151.34041 -51.977997 881.7179 881.7179
-194.9361 24.994209 930.96246 930.96246
-66.667618 -39.216125 864.26172 864.26172
-123.42904 -85.243843 903.26062 903.26062
-118.13418 64.909439 876.12231 876.12231
-35.99646 24.484146 877.1709 877.1709
-143.45303 74.290497 899.08087 899.08087
-176.35774 -39.168083 898.66431 898.66431
-120.62674 73.598648 885.51917 885.51917
-102.90257 6.240593 850.23712 850.23712
-30.881927 -14.230667 879.14679 879.14679
-132.67334 -31.756401 860.98322 860.98322
-177.87354 41.457397 902.91504 902.91504
-155.49234 -34.767616 874.42346 874.42346
-20.126816 50.937225 917.97388 917.97388
-149.14726 -50.789253 879.25397 879.25397
-141.86234 -36.715145 866.93652 866.93652
-167.04932 33.484772 883.79456 883.79456
-122.21273 49.469315 865.97986 865.97986
-65.6987 36.998291 863.66028 863.66028
-114.28931 2.7122955 851.06335 851.06335
-108.74428 30.386063 855.13049 855.13049
-77.972054 41.526001 861.737 861.737
-131.65118 -2.0698853 855.16376 855.16376
-38.167969 -44.759018 885.39789 885.39789
-30.822037 -46.123188 894.43866 894.43866
-82.229271 -48.224976 864.21802 864.21802
-18.921402 -37.619751 905.15564 905.15564
-74.655594 -66.780891 880.01447 880.01447
-2.6959839 14.816521 932.3252 932.3252
-129.70901 92.198151 925.16302 925.16302
-77.361969 -45.852112 864.06335 864.06335
-151.9924 -7.7959366 864.93524 864.93524
-70.470016 -28.940849 858.9483 858.9483
-169.44402 30.357361 884.76227 884.76227
-86.4804 39.164368 858.98694 858.98694
-184.5347 -35.356133 909.95215 909.95215
-73.62944 -12.429398 854.34381 854.34381
-41.5616 -17.143944 870.68396 870.68396
-38.776749 37.945389 880.63245 880.63245
-162.21483 -16.520447 873.47296 873.47296
-28.984421 -53.870052 904.67004 904.67004
-142.03064 -19.34745 861.34845 861.34845
-81.50219 24.421227 854.80841 854.80841
-110.2627 -24.242699 853.52734 853.52734
-144.71307 -24.444733 863.95819 863.95819
-91.287819 -40.442307 858.95868 858.95868
-51.639954 55.382919 882.22064 882.22064
-118.9515 -56.92683 869.9989 869.9989
-45.956009 -74.209801 910.34961 910.34961
-88.002121 -29.803314 855.30145 855.30145
-97.365364 80.719162 891.02991 891.02991
-93.874298 0.25259399 850.18811 850.18811
-124.21734 47.359528 865.32062 865.32062
-16.826004 -48.031448 922.15997 922.15997
-146.7692 46.948318 875.11011 875.11011
-46.253281 49.233459 881.53571 881.53571
-111.01566 -69.365913 878.81696 878.81696
-1.9117889 -1.3368454 930.58569 930.58569
-101.3537 13.593353 850.93744 850.93744
-104.39987 -91.101784 908.99872 908.99872
-103.37559 -60.489822 870.44128 870.44128
-42.247482 10.216866 869.00458 869.00458
-131.61227 -25.046745 858.49414 858.49414
-113.50251 14.627686 852.00146 852.00146
-45.384232 -11.612488 867.04059 867.04059
-100.7809 2.2947769 850.02936 850.02936
-46.233215 -32.467255 872.18604 872.18604
-122.66087 -92.454926 919.36389 919.36389
-127.62713 51.77858 869.03259 869.03259
-99.765503 22.959076 852.67157 852.67157
-45.460556 66.387863 898.83264 898.83264
-136.27136 -0.99842072 856.81531 856.81531
-88.51783 -7.4948273 850.94452 850.94452
-170.39624 -59.097752 910.60681 910.60681
-121.65813 49.61911 865.92346 865.92346
-27.15654 19.31279 884.26685 884.26685
-85.720802 -39.347927 859.18237 859.18237
-46.27356 -45.432747 878.94135 878.94135
-76.955154 -1.8074417 852.70831 852.70831
-100.72066 -30.95755 854.91522 854.91522
-124.42452 -27.217941 856.92676 856.92676
-77.387085 -90.271584 913.39813 913.39813
-50.977585 75.921722 907.19 907.19
-185.22382 -5.3922348 897.96326 897.96326
-129.4317 86.324905 908.99042 908.99042
-42.451385 -4.7880096 868.35913 868.35913
-12.31572 -43.348034 929.20538 929.20538
-50.404129 7.4054565 863.48175 863.48175
-59.410828 42.214172 868.94147 868.94147
-114.58813 -35.659805 857.72021 857.72021
-170.47194 7.3649445 879.43469 879.43469
-151.53984 -14.499138 865.54041 865.54041
-154.7626 -49.048645 882.21143 882.21143
-141.75137 35.168274 866.21448 866.21448
-97.682205 -13.255348 850.90955 850.90955
-115.32326 -54.088467 867.29791 867.29791
-27.573746 37.260864 891.98218 891.98218
-73.145767 -35.370377 860.4021 860.4021
-88.023735 -70.472153 880.0697 880.0697
-55.49855 58.143555 881.8902 881.8902
-76.775871 20.756844 854.97479 854.97479
-141.0323 8.6373901 859.21594 859.21594
-26.879303 -38.410263 893.6261 893.6261
-167.86319 -5.6448059 876.76941 876.76941
-137.83952 -21.593895 859.98956 859.98956
-115.00198 34.228455 857.24573 857.24573
-159.75555 -71.774323 914.25476 914.25476
-159.06042 -38.852543 879.27271 879.27271
-101.86629 42.061844 859.29541 859.29541
-53.6035 -82.859009 918.66711 918.66711
-116.27599 38.570374 859.18469 859.18469
-60.41983 31.467163 863.72583 863.72583
-131.04092 -57.979153 874.66821 874.66821
-44.888824 -50.416824 883.51013 883.51013
-136.84119 78.895355 900.82428 900.82428
-181.59633 25.534973 898.13477 898.13477
-87.691963 19.731712 852.7417 852.7417
-5.0001526 24.270164 930.35339 930.35339
-164.02945 -40.212231 884.55377 884.55377
-124.74704 76.831482 890.97028 890.97028
-67.015244 57.089691 874.81506 874.81506
-90.962959 0.20357513 850.40936 850.40936
-133.26855 -42.404579 865.76782 865.76782
-91.788086 -1.3512497 850.34692 850.34692
-76.623833 8.3204117 853.12726 853.12726
-169.89369 18.539703 880.92651 880.92651
-73.995399 19.356445 855.40039 855.40039
-16.348221 4.5327988 895.39386 895.39386
-39.246674 62.41008 900.86737 900.86737
-149.91014 -38.052982 872.14789 872.14789
-163.37941 -60.425579 901.7113 901.7113
-48.493591 -57.346779 886.29413 886.29413
-60.651886 -91.307945 939.29559 939.29559
-77.009377 -62.381901 875.30109 875.30109
-143.91696 65.952484 888.9953 888.9953
-37.060364 -77.682495 947.99194 947.99194
-82.57753 -16.756096 852.96552 852.96552
-85.972557 -90.973495 910.92249 910.92249
-126.57975 35.935028 860.54504 860.54504
-130.89456 31.463318 860.24707 860.24707
-84.97641 -77.564079 888.69659 888.69659
-155.92737 -52.048241 885.47784 885.47784
-31.985992 -21.470383 879.90637 879.90637
-147.38234 -68.395447 894.52948 894.52948
-110.68345 60.46489 871.07056 871.07056
-176.17017 9.300972 885.87823 885.87823
-190.7408 35.177353 927.00739 927.00739
-150.82774 -39.552925 873.50092 873.50092
-115.20512 -4.8813095 851.28333 851.28333
-64.976364 -61.64011 879.47455 879.47455
-111.60214 -63.206215 873.38171 873.38171
-146.61842 76.71698 905.94061 905.94061
-27.544861 45.527878 898.2558 898.2558
-29.081375 -64.215393 920.89789 920.89789
-151.47125 -62.583588 891.3996 891.3996
-121.97333 -95.279495 929.04791 929.04791
-147.90793 -78.298706 910.32452 910.32452
-22.926819 -53.486122 915.37402 915.37402
-123.48045 -71.546661 884.19922 884.19922
-142.47366 38.665253 868.14044 868.14044
-74.625374 -8.6356888 853.65918 853.65918
-57.949036 -62.213871 883.961 883.961
-84.237587 -42.413361 860.82233 860.82233
-86.57135 -20.335648 853.01477 853.01477
-56.342026 -73.720551 898.43195 898.43195
-161.09869 -64.098816 903.5426 903.5426
-178.99727 8.4733276 889.27411 889.27411
-52.208633 -22.016998 864.96332 864.96332
-134.02405 16.994385 857.51459 857.51459
-82.97261 -88.604172 906.87958 906.87958
-91.299347 94.798294 919.38007 919.38007
-168.94362 9.1491547 878.14551 878.14551
-63.196869 52.739319 873.42261 873.42261
-41.231689 -25.006348 873.05219 873.05219
-84.271774 9.9882965 851.75104 851.75104
-111.58018 49.217377 863.724 863.724
-44.482651 -14.578094 868.11407 868.11407
-119.46752 54.073715 868.16449 868.16449
-88.105301 -67.205109 876.91107 876.91107
-87.393295 -92.819565 914.99146 914.99146
-187.59518 -44.952045 932.49579 932.49579
-56.520218 -35.785469 867.36279 867.36279
-30.344315 3.1726456 878.32001 878.32001
-38.539215 61.27681 900.32379 900.32379
-148.70682 -78.672798 912.07593 912.07593
-66.216385 44.634491 867.13611 867.13611
-119.04549 5.2431259 851.97052 851.97052
-78.236862 49.04985 865.61707 865.61707
-166.56233 -64.779961 912.9458 912.9458
-59.460419 91.269226 944.85504 944.85504
-103.02338 -95.181648 919.48254 919.48254
-31.337296 -56.384697 904.10663 904.10663
-94.385063 23.935295 853.06921 853.06921
-111.19751 -16.06958 851.93683 851.93683
-100.00175 -56.469147 867.46979 867.46979
-119.63447 48.249039 864.63892 864.63892
-60.966843 83.817215 911.90686 911.90686
-96.571503 62.287445 871.84296 871.84296
-83.475006 8.845314 851.77228 851.77228
-141.37634 -69.225792 890.87482 890.87482
-46.178513 -20.101944 868.15161 868.15161
-89.802025 -92.79567 914.15356 914.15356
-190.9194 -5.7849274 908.76654 908.76654
-54.979614 -11.607513 861.46509 861.46509
-101.82674 39.435822 858.1225 858.1225
-88.000092 -48.697578 863.48669 863.48669
-35.975281 -74.764435 932.36157 932.36157
-80.075226 21.085678 854.30048 854.30048
-98.62381 30.224564 854.68695 854.68695
-160.67184 -56.078712 893.66083 893.66083
-187.89453 -42.86145 929.08478 929.08478
-188.64015 22.654175 909.63031 909.63031
-88.35968 -1.3872681 850.68945 850.68945
-112.82628 14.285973 851.86029 851.86029
-169.10948 -61.628948 912.24084 912.24084
-36.305222 76.434525 939.96313 939.96313
-45.650238 65.352554 897.32031 897.32031
-136.20982 0.60418701 856.78796 856.78796
-59.451431 45.31691 870.61365 870.61365
-100.06182 37.158524 857.16016 857.16016
-125.14425 -49.896465 867.06561 867.06561
-131.52831 -2.0193558 855.1217 855.1217
-113.16977 66.787277 876.74689 876.74689
-72.394928 0.4755249 853.88684 853.88684
-150.19412 12.386536 864.40137 864.40137
-186.08855 22.919548 904.57471 904.57471
-141.0502 -11.258171 859.51172 859.51172
-70.023376 -60.596115 876.31476 876.31476
-119.70061 -32.536224 857.51605 857.51605
-60.736206 -86.570816 918.9541 918.9541
-146.59932 42.669342 872.48981 872.48981
-168.97755 -42.414146 891.32178 891.32178
-122.32523 41.486771 861.79321 861.79321
-179.2045 -2.7825623 889.01715 889.01715
-76.955643 -75.601364 888.73505 888.73505
-33.194962 -23.231155 879.30774 879.30774
-54.395828 62.984665 887.12561 887.12561
-107.63644 52.645157 865.32312 865.32312
-98.336639 -11.640198 850.69373 850.69373
-196.78925 -14.633873 929.5625 929.5625
-163.90964 52.546585 893.83582 893.83582
-132.3129 -12.307823 856.16827 856.16827
-37.804062 -8.1643524 872.12183 872.12183
-12.225586 5.9675064 902.46008 902.46008
-66.635239 -7.5021896 856.02917 856.02917
-91.995934 -98.129791 932.49347 932.49347
-174.96745 -12.041054 884.92395 884.92395
-107.08165 49.10791 863.17682 863.17682
-75.418045 -13.699249 854.04138 854.04138
-149.88849 41.958176 874.16693 874.16693
-141.05229 -11.185272 859.5036 859.5036
-151.44547 73.000473 905.00781 905.00781
-36.646759 70.49057 918.10254 918.10254
-152.94495 -28.295448 870.02374 870.02374
-172.16312 -55.077618 908.06024 908.06024
-24.298904 -4.359436 884.80536 884.80536
-191.87158 14.063583 913.09705 913.09705
-66.347092 -63.261818 880.24744 880.24744
-12.575073 -13.380302 903.33258 903.33258
-69.715698 -87.742935 912.79736 912.79736
-94.719803 -34.431442 856.26318 856.26318
-165.55615 12.467178 875.52209 875.52209
-106.13787 74.535126 883.61597 883.61597
-91.879059 -31.772461 855.53009 855.53009
-115.90477 -95.450829 924.77747 924.77747
-131.21799 10.020134 855.52759 855.52759
-153.42108 -83.794189 938.83209 938.83209
-30.461395 -64.051147 917.41425 917.41425
-126.04482 -62.261887 876.20892 876.20892
-111.27968 79.859177 890.87909 890.87909
-39.501007 28.709839 875.73279 875.73279
-129.53839 82.545746 901.89923 901.89923
-174.64784 -63.902412 931.44788 931.44788
-71.434723 -67.031265 881.51031 881.51031
-167.5952 -31.35331 883.30774 883.30774
-88.542412 52.0121 865.36273 865.36273
-115.85842 -82.638367 895.96844 895.96844
-35.378525 51.075455 893.29584 893.29584
-175.16304 -25.484329 889.16364 889.16364
-32.25177 67.122833 919.92169 919.92169
-46.727036 66.450256 897.5943 897.5943
-94.966331 -88.466446 903.64972 903.64972
-120.00578 52.798813 867.46484 867.46484
-106.79475 -24.009285 853.16309 853.16309
-133.64085 -38.529766 864.07123 864.07123
-155.28752 23.461067 870.04456 870.04456
-80.095634 -39.644669 860.37793 860.37793
-21.145172 23.711182 893.25763 893.25763
-138.07693 63.582855 882.86304 882.86304
-62.483749 15.267563 858.57007 858.57007
-80.70282 92.937241 918.53113 918.53113
-20.225067 -3.7618103 889.81854 889.81854
-167.53358 -16.891182 878.20929 878.20929
-9.0425262 -39.545967 937.23853 937.23853
-166.47156 61.089371 906.9928 906.9928
-18.662888 -26.348022 898.13428 898.13428
-85.145889 -81.338982 893.75653 893.75653
-83.955833 -50.45393 865.16498 865.16498
-90.914032 -68.29892 877.52448 877.52448
-65.204758 -77.40979 897.11316 897.11316
-55.51532 70.929077 895.31744 895.31744
-43.933289 6.2418671 867.43146 867.43146
-62.972565 66.944397 885.59955 885.59955
-64.615448 -46.48016 868.83643 868.83643
-50.211639 -22.512238 866.24847 866.24847
-55.898346 62.222855 885.32111 885.32111
-88.401794 54.954269 867.26239 867.26239
-139.89349 6.5089798 858.53339 858.53339
-101.99072 27.783981 853.95789 853.95789
-106.96791 52.582306 865.2265 865.2265
-69.269623 38.874405 863.14136 863.14136
-42.242783 -27.148422 873.01257 873.01257
-106.36307 59.815735 870.11517 870.11517
-56.771744 46.733231 872.8811 872.8811
-157.77829 -71.68454 910.97443 910.97443
-86.954559 -30.105522 855.53589 855.53589
-148.4505 4.2676697 862.62531 862.62531
-97.136879 46.563461 861.54865 861.54865
-37.498795 44.118484 885.60156 885.60156
-181.61995 18.491074 895.26184 895.26184
-51.482285 53.229034 880.62634 880.62634
-147.24014 42.058914 872.54407 872.54407
-33.408051 74.440796 945.09283 945.09283
-37.90741 -20.231857 874.26904 874.26904
-133.46031 76.051086 894.35254 894.35254
-135.26749 -15.873169 857.78149 857.78149
-142.77963 75.261642 899.94415 899.94415
-77.470146 -90.049828 912.80548 912.80548
-43.105225 54.746323 888.63367 888.63367
-120.53569 35.630356 858.8476 858.8476
-96.317528 -77.067352 886.38348 886.38348
-109.69566 -24.194977 853.45679 853.45679
-165.41359 16.781784 876.2475 876.2475
-55.184143 60.657776 884.33289 884.33289
-169.85309 16.931046 880.47388 880.47388
-71.606857 -11.890198 854.85559 854.85559
-56.585785 -30.799118 865.34412 865.34412
-20.438385 -2.46875 889.47021 889.47021
-59.826416 19.526207 860.5304 860.5304
-3.6250763 -21.009483 933.55383 933.55383
-169.7496 32.333252 886.05035 886.05035
-85.644173 52.494659 866.1059 866.1059
-186.66789 8.3988876 900.82544 900.82544
-93.532799 77.727982 887.41779 887.41779
-108.15652 -83.002518 894.82709 894.82709
-112.86441 -52.776386 866.04071 866.04071
-18.621231 35.20929 903.76361 903.76361
-26.464767 5.748703 882.47577 882.47577
-81.780777 -69.460129 880.40582 880.40582
-191.40942 16.419075 912.92261 912.92261
-142.61766 -58.546906 881.03625 881.03625
-28.398331 -31.865158 887.88873 887.88873
-62.967651 -51.616985 872.77118 872.77118
-154.7813 -25.075356 870.18622 870.18622
-40.595551 -73.810822 918.01447 918.01447
-125.38064 -21.033333 855.58911 855.58911
-117.86521 62.754959 874.21973 874.21973
-76.64492 59.823883 873.34723 873.34723
-101.08514 -39.560787 858.16443 858.16443
-53.385193 -11.916359 862.33551 862.33551
-120.58963 -51.075962 866.52954 866.52954
-161.881 27.738083 876.50616 876.50616
-33.115173 -36.350368 885.1535 885.1535
-133.95395 24.251045 859.12085 859.12085
-128.88202 42.875946 864.39929 864.39929
-82.578949 67.718903 878.51111 878.51111
-44.532883 -3.1208954 866.85156 866.85156
-50.925049 23.810219 866.1864 866.1864
-49.104004 28.533112 868.7876 868.7876
-75.595703 0.78948975 853.02679 853.02679
-10.28183 -31.848709 919.40082 919.40082
-148.95859 1.7530441 862.82214 862.82214
-124.16702 33.996811 859.1145 859.1145
-29.76651 -25.590553 883.57422 883.57422
-172.16113 8.1306458 881.24927 881.24927
-121.54194 80.323807 894.46594 894.46594
-99.629677 68.343399 876.99969 876.99969
-191.88028 -9.648468 911.72571 911.72571
-170.66776 -33.079758 887.45563 887.45563
-116.75129 34.653168 857.70398 857.70398
-129.16682 -54.83955 871.62958 871.62958
-94.095734 -56.195465 867.4942 867.4942
-95.335785 -33.76413 855.98816 855.98816
-110.14352 72.353073 881.72009 881.72009
-46.865051 68.475739 900.12262 900.12262
-8.3011932 5.2419662 910.45447 910.45447
-149.35493 78.945694 913.508 913.508
-120.95217 28.948135 856.60291 856.60291
-132.32072 41.228226 864.82019 864.82019
-18.36821 -14.510567 894.0921 894.0921
-152.06137 -58.034958 887.37769 887.37769
-190.6225 -2.6410141 907.80298 907.80298
-131.19821 -77.095718 894.47595 894.47595
-57.32515 -53.342899 876.96991 876.96991
-87.311897 34.177078 856.88214 856.88214
-79.697296 -80.941422 894.89746 894.89746
-105.16149 -33.370872 855.87378 855.87378
-53.589813 86.967743 933.18616 933.18616
-75.999603 41.804428 862.38513 862.38513
-159.41966 46.736908 884.54034 884.54034
-58.292328 66.947693 888.5307 888.5307
-166.98807 58.331299 904.06464 904.06464
-109.1831 -93.927399 916.93469 916.93469
-110.81754 -48.015942 862.95142 862.95142
-41.518585 9.5804214 869.45099 869.45099
-75.456932 -13.058113 853.94208 853.94208
-102.18229 -83.732376 895.37286 895.37286
-74.820618 -84.714745 903.20886 903.20886
-16.1595 -26.447884 902.34204 902.34204
-46.497528 -9.6522369 866.06958 866.06958
-43.357834 -37.575096 876.65302 876.65302
-137.93523 59.397659 879.0575 879.0575
-85.391846 52.462494 866.12933 866.12933
-104.28382 -43.561672 860.08875 860.08875
-157.65582 43.264954 880.68945 880.68945
-145.90742 -20.442505 863.54419 863.54419
-189.61551 13.970901 907.88263 907.88263
-75.688553 78.686951 893.27863 893.27863
-145.60489 78.113281 907.35602 907.35602
-132.94263 -26.678406 859.42932 859.42932
-26.726944 -42.147732 896.57129 896.57129
-191.3837 21.083115 915.29376 915.29376
-38.224899 -6.9824066 871.67322 871.67322
-92.015015 48.676697 863.01251 863.01251
-2.1965485 -8.7126236 931.0639 931.0639
-182.76616 53.828506 934.11749 934.11749
-68.863007 -73.520164 889.78973 889.78973
-168.14087 -29.626045 883.07379 883.07379
-21.86702 12.548721 888.86273 888.86273
-18.846542 37.110153 904.86737 904.86737
-52.444443 -0.068588257 862.03143 862.03143
-97.345711 -30.328712 854.74707 854.74707
-27.658905 -25.351311 885.78101 885.78101
-30.209091 49.316956 898.06671 898.06671
-47.616852 -48.465775 879.94946 879.94946
-36.60817 -42.17741 885.17297 885.17297
-28.568619 1.5143661 880.03381 880.03381
-111.49413 -62.496029 872.78516 872.78516
-18.267242 30.947556 901.39954 901.39954
-147.19675 -67.306046 893.05823 893.05823
-87.977409 -87.087257 902.34216 902.34216
-37.743561 -38.295452 881.75342 881.75342
-84.509239 78.217285 889.65027 889.65027
-144.94244 -10.034859 861.23358 861.23358
-131.32629 47.20015 867.59363 867.59363
-186.02277 -3.2899094 899.11523 899.11523
-35.93956 43.315506 886.59631 886.59631
-95.849518 45.977692 861.29358 861.29358
-192.35864 20.262337 917.45282 917.45282
-119.56267 41.974579 861.36908 861.36908
-184.76755 -32.85656 908.34778 908.34778
-69.998978 28.168518 858.86017 858.86017
-98.091469 1.9852905 850.0379 850.0379
-154.73712 -20.735695 868.92053 868.92053
-111.9631 -38.877541 858.64673 858.64673
-131.73367 61.528732 877.83911 877.83911
-117.31782 -66.355576 877.2193 877.2193
-56.850235 -19.982224 862.02948 862.02948
-120.99778 4.8632126 852.3504 852.3504
-143.5322 -7.7293243 860.30493 860.30493
-67.514938 61.53392 878.17871 878.17871
-125.92557 -5.1422882 853.55615 853.55615
-189.35672 -10.798515 906.42517 906.42517
-97.321007 -45.348846 860.91406 860.91406
-100.66787 -18.253792 851.68237 851.68237
-155.47281 -1.2427673 866.80609 866.80609
-188.0564 32.170349 915.19855 915.19855
-57.557251 84.932587 918.6142 918.6142
-86.576859 -0.30545044 850.90546 850.90546
-121.45997 -79.545746 893.32599 893.32599
-169.54434 43.880951 893.09619 893.09619
-145.29417 -44.53886 872.76837 872.76837
-90.019188 66.999832 876.43774 876.43774
-48.240158 45.261658 877.3894 877.3894
-132.32278 -33.836784 861.62402 861.62402
-170.14053 -69.981056 936.47382 936.47382
-126.38603 20.320473 855.70868 855.70868
-189.88924 -4.7505417 906.44135 906.44135
-50.107864 -70.887367 900.14264 900.14264
-118.181 33.849838 857.67645 857.67645
-186.832 -38.940273 919.27771 919.27771
-66.679733 -17.779747 857.40607 857.40607
-100.97984 86.750595 900.26697 900.26697
-21.127747 -17.956841 891.20612 891.20612
-189.13522 -13.484856 906.72101 906.72101
-158.61014 -68.113213 906.12012 906.12012
-92.818245 -26.242432 853.77234 853.77234
-75.236069 60.523636 874.34528 874.34528
-60.72554 90.390503 933.05676 933.05676
-62.058365 -63.860756 883.05048 883.05048
-41.442734 2.9100418 868.99023 868.99023
-19.806625 -51.193012 919.20557 919.20557
-122.62852 -38.226406 860.4082 860.4082
-122.92759 -81.276527 896.44208 896.44208
-146.59842 -87.509628 936.93658 936.93658
-96.743706 -56.243946 867.38031 867.38031
-69.633804 48.430069 867.94867 867.94867
-75.566612 -61.572124 875.08752 875.08752
-112.21315 -7.6660156 851.0451 851.0451
-170.01367 -61.698162 914.0636 914.0636
-150.14575 22.960091 866.58392 866.58392
-47.529709 79.876816 920.56256 920.56256
-55.041458 41.472656 870.88776 870.88776
-177.57193 32.202835 895.72687 895.72687
-150.86905 -1.5947418 863.9198 863.9198
-46.229095 31.045883 871.61096 871.61096
-127.94733 -72.826065 887.42755 887.42755
-30.389542 51.186722 899.65814 899.65814
-175.42566 -10.196144 885.13855 885.13855
-92.581894 15.338623 851.46222 851.46222
-110.12724 -77.017433 887.02576 887.02576
-116.10254 78.4897 890.16626 890.16626
-40.497467 -68.767296 908.40063 908.40063
-87.467957 -7.6413498 851.08307 851.08307
-81.026283 -92.874588 918.15179 918.15179
-104.2124 31.448349 855.16724 855.16724
-87.48542 31.316376 855.85828 855.85828
-155.05469 -64.367416 896.84155 896.84155
-154.42441 30.940216 872.02124 872.02124
-144.28719 -52.576233 877.37506 877.37506
-124.72678 19.446205 855.07672 855.07672
-148.59822 53.086182 880.57324 880.57324
-37.913116 71.371536 917.57587 917.57587
-78.224442 59.541641 872.66553 872.66553
-34.331314 -25.283012 878.94794 878.94794
-58.364075 -1.925293 859.10034 859.10034
-126.70615 -59.588573 874.26373 874.26373
-25.31514 49.115494 905.16876 905.16876
-16.181564 -51.277946 931.42468 931.42468
-131.83023 -58.027527 875.03571 875.03571
-68.466904 59.579041 876.13525 876.13525
-149.65793 74.989105 906.28815 906.28815
-45.334122 57.76123 889.37592 889.37592
-49.705185 50.343735 879.74377 879.74377
-35.921997 -57.15694 898.74481 898.74481
-63.38382 -12.154968 857.74213 857.74213
-21.221283 22.620834 892.70941 892.70941
-51.091797 25.106606 866.46771 866.46771
-151.60535 -66.700089 896.26001 896.26001
-106.28854 86.244934 899.77783 899.77783
-168.17285 1.7160034 876.85962 876.85962
-59.702255 63.998276 884.57593 884.57593
-99.952789 11.583672 850.67322 850.67322
-114.49302 -36.932194 858.20691 858.20691
-169.76686 -0.44267273 878.35931 878.35931
-83.111534 -23.43544 854.26306 854.26306
-136.12544 31.086578 862.08765 862.08765
-73.407349 -93.344505 925.92438 925.92438
-139.85287 -66.926025 887.28912 887.28912
-104.34129 -59.227852 869.5437 869.5437
-145.8419 62.925537 887.23938 887.23938
-148.82953 -27.340836 867.12567 867.12567
-37.198502 -34.922066 880.45563 880.45563
-44.493835 -79.004852 923.97504 923.97504
-111.32591 -52.26862 865.50317 865.50317
-119.27575 55.819702 869.29926 869.29926
-117.4445 20.060715 853.59845 853.59845
-122.12915 -92.728706 919.80585 919.80585
-165.67651 -26.582733 879.43121 879.43121
-135.95502 -7.8666 857.01959 857.01959
-57.494949 24.248352 862.79138 862.79138
-10.677795 -7.162384 905.61255 905.61255
-145.80994 4.8583145 861.2428 861.2428
-84.114708 30.516907 856.10443 856.10443
-100.3549 40.036453 858.36511 858.36511
-131.19005 -71.83506 887.81555 887.81555
-71.370392 -10.724602 854.78796 854.78796
-55.84465 13.191818 861.25159 861.25159
-70.628876 63.343781 878.41156 878.41156
-75.606094 -55.356735 870.37231 870.37231
-37.368973 66.041779 908.57733 908.57733
-33.345627 6.9774399 875.78064 875.78064
-14.727829 28.255615 906.06506 906.06506
-107.41631 43.346054 860.18842 860.18842
-189.94984 27.820526 916.30957 916.30957
-40.301224 19.989075 872.30511 872.30511
-187.25229 -46.280827 934.34357 934.34357
-108.84393 -66.868721 876.17346 876.17346
-106.26 -36.089443 856.94965 856.94965
-111.37236 -53.594063 866.34387 866.34387
-82.273361 68.924454 879.74915 879.74915
-95.876801 -15.986671 851.37231 851.37231
-97.454132 -38.931076 857.92456 857.92456
-165.29785 -43.426399 887.94891 887.94891
-26.763565 10.860649 882.7804 882.7804
-82.341858 3.2469635 851.62494 851.62494
-168.63306 -32.32769 884.85077 884.85077
-165.44135 18.483017 876.68011 876.68011
-111.85146 47.512695 862.81006 862.81006
-139.07536 37.305023 865.84863 865.84863
-119.43966 16.777168 853.35309 853.35309
-82.096657 -55.548576 868.79761 868.79761
-142.21048 45.957443 871.85791 871.85791
-87.62281 25.090706 853.99341 853.99341
-145.07358 -29.648788 865.80188 865.80188
-52.819839 -77.026756 907.09418 907.09418
-59.978516 41.182709 868.13263 868.13263
-73.877922 64.244812 877.95667 877.95667
