# .PCD v0.7 - Point Cloud Data file format
VERSION 0.7
FIELDS x y z intensity
SIZE 4 4 4 4
TYPE F F F F
COUNT 1 1 1 1
WIDTH 1180
HEIGHT 1
VIEWPOINT 0 0 0 1 0 0 0
POINTS 1180
DATA ascii
-31.837769 120.41281 829.73462 829.73462
-53.814423 146.5321 824.49072 824.49072
-127.69962 115.50409 805.172 805.172
-83.643806 88.698616 801.99615 801.99615
-91.750107 66.622261 806.0965 806.0965
-61.448044 74.028038 811.46069 811.46069
-135.94621 88.071846 807.44952 807.44952
-195.48317 74.265358 885.14429 885.14429
-17.536743 59.256321 860.76019 860.76019
-53.730042 184.97171 874.72351 874.72351
-136.52896 41.304749 827.74695 827.74695
-92.150162 108.91168 800.7077 800.7077
-109.34964 198.19299 883.54645 883.54645
-53.079117 128.34395 816.36359 816.36359
-84.89473 70.233803 805.73547 805.73547
-158.65785 128.65286 824.24866 824.24866
-149.77863 109.53858 813.79614 813.79614
-3.6932831 74.644089 890.93939 890.93939
-164.33495 66.064804 831.37482 831.37482
-75.851227 162.97812 826.17188 826.17188
-63.923019 165.93974 834.04242 834.04242
-39.189667 165.02531 854.46088 854.46088
-99.245247 64.102058 806.66852 806.66852
-120.33235 127.31261 805.97546 805.97546
-125.46304 39.603672 824.47571 824.47571
-85.035118 44.061409 818.47131 818.47131
-32.547165 92.437454 826.56348 826.56348
-152.84628 49.259315 831.9364 831.9364
-45.375366 117.42854 818.0708 818.0708
-6.4962921 111.58006 866.48944 866.48944
-94.94902 93.223511 800.35779 800.35779
-18.957031 53.507729 864.35583 864.35583
-57.373306 150.68842 825.07568 825.07568
-53.524475 69.887672 816.7337 816.7337
-158.56366 67.164841 825.89093 825.89093
-112.14342 18.137035 843.86627 843.86627
-17.105774 125.30304 850.11713 850.11713
-128.87479 178.87292 845.72931 845.72931
-61.893158 68.858566 812.94781 812.94781
-153.88287 56.013985 828.15387 828.15387
-97.129013 52.203358 812.20911 812.20911
-45.976059 128.75443 820.914 820.914
-97.420563 179.66475 839.61066 839.61066
-111.6396 184.78178 848.2644 848.2644
-119.28739 88.67334 802.53357 802.53357
-172.10405 41.281597 863.21472 863.21472
-66.134003 51.353474 819.46051 819.46051
-165.21049 33.36145 863.849 863.849
-70.014328 155.83469 822.64789 822.64789
-27.842896 97.775826 830.8017 830.8017
-148.2843 47.25341 830.09705 830.09705
-142.13521 187.48581 876.10736 876.10736
-115.0126 5.9094434 869.64227 869.64227
-25.329956 155.54144 863.40039 863.40039
-12.256973 95.646332 852.22754 852.22754
-97.359673 34.304111 824.65363 824.65363
-81.75663 173.56487 834.76666 834.76666
-38.387878 45.105927 843.51471 843.51471
-90.328369 22.606503 837.41638 837.41638
-124.38193 178.90851 843.61768 843.61768
-79.633904 59.340595 810.93805 810.93805
-122.19001 16.398195 849.81689 849.81689
-169.68347 73.815323 833.22742 833.22742
-142.09326 113.42362 810.28955 810.28955
-54.3573 57.485641 821.83813 821.83813
-48.170181 48.692436 831.58069 831.58069
-197.49069 115.51505 884.03601 884.03601
-52.840347 91.495804 812.22961 812.22961
-161.67682 104.13215 821.39404 821.39404
-155.86281 52.750504 831.83234 831.83234
-175.25613 148.70604 855.6803 855.6803
-35.444534 154.18295 846.1781 846.1781
-97.235321 168.42589 827.12854 827.12854
-81.394669 151.67136 816.43018 816.43018
-83.486282 27.553072 833.0766 833.0766
-80.246399 154.35268 818.41827 818.41827
-105.94707 108.20122 800.51447 800.51447
-31.686111 164.86063 866.43945 866.43945
-36.469986 130.01176 828.84363 828.84363
-130.33389 148.62068 818.0495 818.0495
-143.62383 48.925533 825.9165 825.9165
-108.63385 27.260658 831.92322 831.92322
-150.9671 55.387508 826.43317 826.43317
-59.877319 8.6614904 893.11182 893.11182
-17.534988 45.863827 883.60498 883.60498
-140.40878 145.83661 820.84106 820.84106
-55.423599 99.042168 810.49005 810.49005
-166.91019 55.793972 840.26013 840.26013
-103.41991 188.95711 854.44855 854.44855
-31.087936 78.221596 830.88538 830.88538
-198.45802 108.11082 884.50055 884.50055
-75.960876 134.68272 809.34003 809.34003
-146.40521 154.87268 830.46191 830.46191
-111.62798 31.328651 828.24323 828.24323
-111.14395 97.873756 800.64563 800.64563
-117.06484 171.72197 832.43707 832.43707
-59.821274 183.87149 863.24072 863.24072
-143.07173 52.631306 823.18182 823.18182
-142.71512 132.69637 815.70074 815.70074
-25.48114 131.32016 841.12738 841.12738
-74.573502 77.538063 805.93109 805.93109
-161.46417 33.321999 857.85504 857.85504
-95.008705 181.73178 842.5979 842.5979
-167.95959 152.75641 849.02692 849.02692
-117.23024 37.933418 823.50909 823.50909
-66.788467 65.90799 812.05267 812.05267
-54.15094 80.768051 813.23596 813.23596
-75.393341 48.837643 817.67792 817.67792
-33.297821 166.44888 866.30481 866.30481
-111.3044 95.437889 800.74579 800.74579
-134.99718 136.73872 813.82886 813.82886
-174.06271 50.093895 855.01007 855.01007
-40.914642 91.453484 819.77606 819.77606
-128.82668 188.85783 864.31659 864.31659
-59.966125 52.329277 821.73895 821.73895
-34.895233 35.343292 860.23975 860.23975
-43.825317 87.605835 818.20276 818.20276
-186.60883 75.738052 856.2934 856.2934
-190.31982 62.492466 879.13098 879.13098
-153.72906 140.21396 825.86481 825.86481
-173.36345 32.059402 898.62927 898.62927
-43.276352 174.73976 865.41101 865.41101
-13.753983 116.84411 852.27264 852.27264
-191.51244 96.518318 859.83344 859.83344
-31.239243 50.233459 847.12988 847.12988
-68.765839 50.907307 818.67145 818.67145
-169.28282 169.42419 880.50201 880.50201
-107.46544 94.60743 800.42499 800.42499
-77.21022 102.97144 802.67682 802.67682
-73.531303 160.78227 825.13397 825.13397
-56.879898 91.617111 810.16467 810.16467
-147.14447 185.39328 877.96851 877.96851
-46.513657 40.229088 840.27856 840.27856
-87.0186 188.85092 855.98865 855.98865
-31.513611 134.44051 835.78577 835.78577
-98.689224 42.226318 818.38818 818.38818
-75.734009 195.12971 880.98688 880.98688
-158.5484 138.61192 828.71741 828.71741
-65.173157 187.57904 866.57843 866.57843
-159.45012 52.874519 834.84729 834.84729
-156.52579 106.36071 817.75415 817.75415
-108.81921 141.99904 809.6767 809.6767
-100.51335 61.632412 807.65466 807.65466
-20.73378 83.247894 841.38062 841.38062
-166.62715 155.91977 850.66644 850.66644
-48.072556 23.641077 861.62219 861.62219
-123.80354 94.237587 803.04541 803.04541
-47.242157 165.375 845.75317 845.75317
-57.704132 109.90079 809.92761 809.92761
-134.98782 165.71898 833.24023 833.24023
-175.21039 58.632702 848.69556 848.69556
-34.553665 33.230637 864.52283 864.52283
-119.13676 40.396038 822.01825 822.01825
-101.12476 9.9258738 856.57898 856.57898
-154.23792 159.13652 840.32489 840.32489
-169.17845 154.06438 852.13159 852.13159
-62.528946 39.108406 830.08484 830.08484
-79.873634 129.54594 806.60852 806.60852
-90.292679 79.761925 802.55164 802.55164
-51.719528 40.782295 835.48444 835.48444
-38.757401 64.061897 829.58838 829.58838
-34.980316 35.298435 860.17352 860.17352
-105.77067 46.00465 816.02856 816.02856
-64.895767 172.82057 841.13696 841.13696
-83.954025 47.760086 816.25323 816.25323
-28.278503 107.72728 830.74457 830.74457
-113.77792 92.6511 801.22668 801.22668
-62.922256 96.284416 807.20215 807.20215
-60.645706 125.08746 811.55872 811.55872
-102.2565 95.147568 800.14331 800.14331
-166.28189 127.70937 830.43781 830.43781
-175.07108 44.006317 864.94232 864.94232
-65.785065 7.7490916 882.13641 882.13641
-109.09564 158.30348 819.26605 819.26605
-45.530243 130.90431 822.0387 822.0387
-33.73082 162.41667 858.617 858.617
-86.37265 75.836746 803.92487 803.92487
-168.84743 38.715824 861.21497 861.21497
-26.624878 71.090294 838.51569 838.51569
-33.706802 155.57037 849.82886 849.82886
-56.621521 162.44159 835.04346 835.04346
-40.110672 98.319641 819.93475 819.93475
-31.236786 120.8698 830.45813 830.45813
-184.40802 88.785316 847.56415 847.56415
-174.42595 158.82661 868.37396 868.37396
-80.057442 106.32549 802.21307 802.21307
-35.289413 91.828606 824.19916 824.19916
-137.12613 52.938087 819.95734 819.95734
-168.96489 140.80688 840.17822 840.17822
-107.18705 118.49857 801.98901 801.98901
-103.81164 63.004608 807.17322 807.17322
-58.748779 158.13792 829.86926 829.86926
-176.03616 44.406696 866.41595 866.41595
-48.184952 17.998402 875.6908 875.6908
-113.98398 16.968191 846.05402 846.05402
-18.76564 106.13083 842.00525 842.00525
-83.822418 58.115131 810.64709 810.64709
-53.806091 71.947411 815.86218 815.86218
-191.04483 113.46382 860.89038 860.89038
-98.600479 141.12192 808.85712 808.85712
-109.0397 12.248315 852.90515 852.90515
-111.27767 87.048386 801.48572 801.48572
-19.459793 142.69376 858.88409 858.88409
-188.30804 132.10016 865.77618 865.77618
-65.822296 43.834255 824.65216 824.65216
-72.781563 78.050499 806.31238 806.31238
-122.05515 41.311722 822.09454 822.09454
-72.127831 134.06097 810.20581 810.20581
-123.93977 148.21527 815.72559 815.72559
-36.7173 96.702263 822.64093 822.64093
-38.160461 64.789871 829.74249 829.74249
-102.19202 172.60788 831.2738 831.2738
-140.57138 45.19141 826.85645 826.85645
-3.4440308 92.662674 875.03784 875.03784
-16.536133 122.16125 849.5752 849.5752
-135.40164 158.6833 827.17834 827.17834
-125.89366 167.74184 831.14825 831.14825
-56.730957 26.569866 847.69507 847.69507
-124.71502 97.57531 803.13263 803.13263
-179.1389 71.756577 845.7843 845.7843
-45.096893 42.231167 839.5979 839.5979
-32.514572 80.924576 828.71295 828.71295
-49.827591 91.046761 813.96179 813.96179
-91.459747 167.79631 826.98816 826.98816
-69.203415 16.515377 854.37225 854.37225
-127.04047 132.95361 809.54077 809.54077
-99.46257 151.02171 813.99713 813.99713
-171.89305 113.8809 831.89191 831.89191
-26.035172 76.451561 836.95496 836.95496
-139.83801 173.01488 844.48639 844.48639
-31.727097 113.97122 828.28101 828.28101
-138.60794 101.65919 807.76837 807.76837
-67.069824 8.4300632 876.96631 876.96631
-122.5197 92.114029 802.88831 802.88831
-166.25331 131.73911 832.15363 832.15363
-39.373535 113.97095 821.71051 821.71051
-158.08508 179.84103 884.14026 884.14026
-102.47158 28.462521 830.16962 830.16962
-178.42239 46.265984 868.97449 868.97449
-190.24207 83.711555 860.11194 860.11194
-175.63112 124.13067 839.19171 839.19171
-147.89563 170.34811 847.49139 847.49139
-28.633987 43.561974 858.50732 858.50732
-163.36127 151.84502 842.5766 842.5766
-178.01489 69.478645 845.39117 845.39117
-6.8639221 74.257416 874.2514 874.2514
-182.2943 79.197182 847.13324 847.13324
-131.10019 154.51859 822.15076 822.15076
-92.729225 190.69269 858.50336 858.50336
-148.42825 158.18158 834.65778 834.65778
-129.50293 195.17621 891.56989 891.56989
-115.42194 131.61923 806.3924 806.3924
-20.70694 101.60635 839.08997 839.08997
-102.49183 173.86469 832.63684 832.63684
-73.375656 53.976982 815.30627 815.30627
-190.12617 109.52477 857.73236 857.73236
-67.932953 143.98621 816.11365 816.11365
-103.2727 185.5321 848.29364 848.29364
-168.34358 162.3821 862.08392 862.08392
-186.7291 100.53278 850.22272 850.22272
-72.434593 25.373888 839.41046 839.41046
-32.985764 47.613453 847.41919 847.41919
-109.84081 67.565239 805.91949 805.91949
-151.73529 39.354855 839.62097 839.62097
-0.18153381 102.32891 894.44574 894.44574
-18.662689 70.507378 849.85596 849.85596
-73.630714 67.055412 809.33954 809.33954
-177.45708 132.37823 845.66724 845.66724
-80.292877 137.57861 809.44904 809.44904
-179.73524 65.124336 850.74579 850.74579
-4.74617 98.441864 869.59802 869.59802
-81.713882 100.37878 801.68683 801.68683
-78.336334 26.224236 836.0639 836.0639
-66.361969 113.55421 806.80792 806.80792
-133.74892 142.17435 815.84338 815.84338
-15.072372 87.669174 848.66534 848.66534
-95.818329 81.06356 801.89838 801.89838
-49.049301 157.08856 835.6189 835.6189
-59.318375 55.577343 820.17749 820.17749
-185.15657 107.2602 848.08038 848.08038
-146.26651 50.645668 826.35516 826.35516
-48.866608 79.091461 816.6441 816.6441
-168.06232 136.10806 836.25262 836.25262
-118.05946 103.86401 801.72015 801.72015
-79.447647 120.60303 804.32806 804.32806
-94.294914 173.38095 832.30444 832.30444
-193.9415 71.420433 881.07373 881.07373
-112.65524 158.75856 820.07959 820.07959
-34.875626 42.311546 850.69629 850.69629
-191.07085 126.11854 868.00122 868.00122
-28.808563 112.15182 830.8327 830.8327
-57.110352 87.889931 810.48004 810.48004
-118.67658 91.068443 802.16638 802.16638
-186.82422 78.74678 855.16858 855.16858
-162.15262 93.37204 821.94153 821.94153
-35.047989 136.69429 833.40594 833.40594
-70.888062 92.527283 804.6236 804.6236
-5.230545 79.953644 875.16266 875.16266
-93.751312 50.327259 813.43457 813.43457
-43.3004 23.017841 870.69299 870.69299
-132.01253 123.18064 808.14221 808.14221
-110.50146 140.64694 809.23907 809.23907
-84.170578 35.699547 825.0675 825.0675
-162.20654 146.10988 836.72107 836.72107
-34.154678 159.60609 854.04889 854.04889
-158.23917 37.000443 848.62634 848.62634
-41.529007 43.050297 842.22565 842.22565
-13.376526 101.21754 850.05109 850.05109
-101.40223 140.33318 808.50537 808.50537
-110.95253 53.414738 812.19421 812.19421
-101.97991 3.8179874 872.70349 872.70349
-137.4893 49.033298 822.56006 822.56006
-93.605438 51.534061 812.76373 812.76373
-119.58826 122.8045 804.62573 804.62573
-112.82104 89.841423 801.34692 801.34692
-188.82542 63.418365 872.2182 872.2182
-117.16756 59.375732 810.25067 810.25067
-19.81929 123.78 845.17694 845.17694
-76.189926 143.96111 813.39453 813.39453
-165.88489 39.170921 855.73938 855.73938
-195.10623 116.72353 874.01678 874.01678
-24.034042 125.44492 840.15247 840.15247
-22.941238 124.82107 841.29852 841.29852
-182.43533 142.8815 863.04608 863.04608
-112.90453 101.41457 800.84619 800.84619
-159.3645 58.504467 831.0509 831.0509
-110.85597 173.1116 832.64392 832.64392
-117.73849 111.59441 802.27124 802.27124
-167.70065 27.275505 888.69647 888.69647
-75.339104 105.10396 803.22296 803.22296
-3.9603424 105.90784 872.76984 872.76984
-93.422447 89.871063 800.73199 800.73199
-154.23274 57.903683 827.29022 827.29022
-15.909821 124.95811 851.97986 851.97986
-12.213928 122.63506 857.79504 857.79504
-117.46438 51.32634 814.40869 814.40869
-112.92105 91.075691 801.24066 801.24066
-150.94722 75.623718 817.4762 817.4762
-50.484406 112.26698 813.98999 813.98999
-190.07983 77.842239 862.65491 862.65491
-41.166733 133.98985 826.62878 826.62878
-147.74075 181.27977 866.61707 866.61707
-58.810532 171.32114 843.28381 843.28381
-78.23645 12.8502 856.05389 856.05389
-143.21645 14.185354 872.28381 872.28381
-174.59975 47.246708 859.35559 859.35559
-22.678177 77.468185 840.72394 840.72394
-44.797226 57.110268 828.4939 828.4939
-192.67458 107.05798 863.10004 863.10004
-102.44007 59.63763 808.54004 808.54004
-90.149185 108.54642 800.85406 800.85406
-132.93558 188.88878 868.15613 868.15613
-64.789124 131.4384 811.84204 811.84204
-132.39606 158.98628 826.03302 826.03302
-114.91694 98.650452 801.12805 801.12805
-111.61769 84.269508 801.93073 801.93073
-69.833725 72.07412 808.84003 808.84003
-150.56512 158.84882 836.9129 836.9129
-25.864487 104.71253 833.05438 833.05438
-135.80154 8.3638878 882.08148 882.08148
-109.81023 18.239424 843.26404 843.26404
-121.56184 36.82761 825.53967 825.53967
-100.89023 143.18552 809.81012 809.81012
-142.0672 173.28586 846.52539 846.52539
-33.024323 77.291847 829.29926 829.29926
-24.271698 116.35648 836.77271 836.77271
-70.320068 12.19608 862.45569 862.45569
-80.51236 65.536133 808.17151 808.17151
-142.12708 36.798962 834.95435 834.95435
-101.60976 26.791945 831.89722 831.89722
-77.857628 193.61731 872.69586 872.69586
-59.67131 160.49469 831.34149 831.34149
-112.24018 43.910599 818.12109 818.12109
-69.877808 49.127563 819.34863 819.34863
-64.392258 109.13974 807.00238 807.00238
-107.88963 38.595886 821.4679 821.4679
-70.904678 118.26411 806.08575 806.08575
-168.38693 171.79694 887.02203 887.02203
-12.164993 142.31395 877.76172 877.76172
-24.242142 117.85908 837.21625 837.21625
-49.338501 55.736328 826.01257 826.01257
-132.96324 72.131332 809.79602 809.79602
-63.89859 88.603477 807.44293 807.44293
-128.50964 67.574341 809.80145 809.80145
-193.15042 108.84946 864.71991 864.71991
-50.764191 177.75732 860.88947 860.88947
-134.55243 182.3873 855.07269 855.07269
-42.033493 98.39743 818.53027 818.53027
-96.577431 118.68748 801.82129 801.82129
-175.8045 130.77841 842.49896 842.49896
-77.923012 169.11252 831.18091 831.18091
-171.55309 142.79559 844.78503 844.78503
-126.13569 134.06691 809.68738 809.68738
-191.69501 138.57059 889.78552 889.78552
-5.837738 111.29297 868.28351 868.28351
-126.29298 86.125687 804.5213 804.5213
-15.542679 81.571815 849.72711 849.72711
-194.53786 93.10228 868.14069 868.14069
-22.098648 87.181244 838.62366 838.62366
-9.9329224 109.39944 857.57861 857.57861
-82.771385 21.358149 840.68195 840.68195
-106.47838 101.91228 800.22839 800.22839
-115.05705 186.19774 851.59302 851.59302
-8.9155273 113.6186 861.0365 861.0365
-158.8006 176.88156 874.86609 874.86609
-116.31975 174.31897 835.11273 835.11273
-83.825447 61.514942 809.13037 809.13037
-178.76266 156.34181 875.0592 875.0592
-169.743 39.251854 861.97925 861.97925
-111.91924 123.03416 803.42175 803.42175
-58.288422 108.11327 809.47754 809.47754
-72.890648 35.274437 828.75616 828.75616
-143.50053 42.994957 830.29974 830.29974
-165.15225 112.55097 825.1825 825.1825
-155.79549 161.27361 844.03204 844.03204
-116.67014 44.073551 818.79443 818.79443
-116.80739 109.50078 801.88147 801.88147
-147.34607 122.93604 814.95715 814.95715
-100.8727 17.691925 843.21429 843.21429
-112.53789 156.96915 818.77612 818.77612
-37.775269 119.55901 824.20074 824.20074
-192.65237 109.6171 863.62628 863.62628
-67.854553 109.20187 805.75568 805.75568
-165.03375 51.364357 841.64606 841.64606
-163.52309 106.13857 823.01208 823.01208
-117.499 55.458748 812.19421 812.19421
-174.12234 55.421181 849.81427 849.81427
-13.957275 116.16656 851.67517 851.67517
-101.0602 10.766635 854.87482 854.87482
-106.53224 4.2465582 871.91785 871.91785
-188.31627 144.63692 885.58533 885.58533
-165.18089 139.22237 835.09192 835.09192
-153.33296 31.160549 850.83978 850.83978
-71.738495 134.09808 810.34174 810.34174
-146.40704 158.62271 833.59393 833.59393
-57.296692 87.437233 810.45337 810.45337
-175.07954 51.720154 854.92096 854.92096
-133.09415 157.07892 824.85498 824.85498
-130.77623 109.8924 805.36932 805.36932
-137.56009 138.22119 815.57025 815.57025
-146.40009 33.382278 841.61243 841.61243
-144.38779 98.465195 810.40442 810.40442
-159.84283 118.89606 822.14258 822.14258
-60.653061 186.90565 870.01294 870.01294
-139.88655 138.9635 816.98853 816.98853
-77.573349 5.1578064 877.5946 877.5946
-113.32007 94.029411 801.07111 801.07111
-95.584297 101.08378 800.10339 800.10339
-35.058975 120.97668 826.90662 826.90662
-173.58879 87.118996 833.52618 833.52618
-166.90747 103.13274 825.74652 825.74652
-154.83049 140.64095 826.9115 826.9115
-54.25293 168.2972 843.0553 843.0553
-49.252197 35.836651 842.48718 842.48718
-187.26886 74.237434 858.52185 858.52185
-45.6698 47.666023 834.35413 834.35413
-93.04615 116.7045 801.65063 801.65063
-124.36404 11.945269 859.34589 859.34589
-54.216644 57.145924 822.10638 822.10638
-97.031799 81.9981 801.67847 801.67847
-160.84604 105.15307 820.80908 820.80908
-109.50607 34.183331 825.31531 825.31531
-52.218185 180.68741 865.26617 865.26617
-83.839729 86.36377 802.26105 802.26105
-68.553055 29.482567 836.45172 836.45172
-30.487717 160.49539 861.16254 861.16254
-108.62768 145.19759 811.21521 811.21521
-162.17632 164.85213 856.08752 856.08752
-107.28185 169.04716 828.03149 828.03149
-172.30862 59.47361 844.06189 844.06189
-63.005905 138.02782 815.2337 815.2337
-155.03357 52.570724 831.28485 831.28485
-1.8326569 86.575073 886.4743 886.4743
-131.71802 8.0760775 876.677 876.677
-85.400558 170.20576 830.3006 830.3006
-129.29581 15.790462 854.71747 854.71747
-169.29184 159.65919 859.51025 859.51025
-135.56108 34.660061 833.17108 833.17108
-16.955231 134.95773 856.62347 856.62347
-168.66307 95.81089 827.42017 827.42017
-139.84047 70.21563 813.24963 813.24963
-130.9201 138.85687 813.20087 813.20087
-194.38756 79.81237 873.85712 873.85712
-113.86445 48.269203 815.5506 815.5506
-108.51405 161.19223 821.3678 821.3678
-34.097473 68.007721 831.93127 831.93127
-80.266663 13.786833 853.33215 853.33215
-6.817276 122.55209 871.56793 871.56793
-138.24013 190.94922 883.69257 883.69257
-34.965851 25.571199 884.8042 884.8042
-69.26355 73.634789 808.56616 808.56616
-64.115952 142.70761 817.00366 817.00366
-21.595627 154.73328 870.72504 870.72504
-156.12991 72.699715 821.87109 821.87109
-165.73077 153.17592 846.5979 846.5979
-143.20242 153.56432 827.44373 827.44373
-71.552094 77.852791 806.72504 806.72504
-176.54108 82.316223 838.12311 838.12311
-150.87137 90.607758 814.42029 814.42029
-193.30045 67.22319 885.14374 885.14374
-140.69998 63.539822 816.24939 816.24939
-53.181229 164.46751 839.56873 839.56873
-141.39079 125.29954 812.55438 812.55438
-124.92679 59.19408 812.17328 812.17328
-52.598221 51.850956 826.2793 826.2793
-33.11055 59.115677 837.91724 837.91724
-167.62439 52.694153 843.52789 843.52789
-161.52171 155.71663 844.22601 844.22601
-195.78746 84.623825 875.74438 875.74438
-58.210938 181.41476 859.68488 859.68488
-176.62567 131.53004 844.01465 844.01465
-123.71705 165.04791 827.84552 827.84552
-161.42061 26.430145 871.45203 871.45203
-19.133011 123.22847 845.95404 845.95404
-146.70387 120.5833 814.00537 814.00537
-147.57529 131.24411 817.77838 817.77838
-81.46315 36.881199 824.68463 824.68463
-114.1852 161.10146 822.11938 822.11938
-50.177017 161.39026 838.77167 838.77167
-153.22427 32.991638 848.2597 848.2597
-68.226776 185.88185 859.8158 859.8158
-92.447517 112.26286 801.04254 801.04254
-97.478745 166.1114 825.01385 825.01385
-160.24411 86.169144 821.39111 821.39111
-113.36116 77.617447 803.45728 803.45728
-98.814621 9.0785389 858.38409 858.38409
-174.49037 152.17517 858.41956 858.41956
-128.0571 167.50931 831.77026 831.77026
-75.35421 25.447527 838.07654 838.07654
-161.25475 119.43269 823.38257 823.38257
-109.38198 45.961205 816.38312 816.38312
-140.52417 37.115757 833.64215 833.64215
-104.15361 66.869637 805.73907 805.73907
-99.6847 142.09889 809.29395 809.29395
-16.375107 91.660606 845.80286 845.80286
-35.911194 77.118095 826.72626 826.72626
-136.40607 72.847816 810.90814 810.90814
-124.61629 92.552505 803.36371 803.36371
-109.35209 42.238029 818.90686 818.90686
-80.017029 123.15489 804.79218 804.79218
-91.513786 76.349403 803.20831 803.20831
-8.7114258 105.14221 859.50366 859.50366
-171.84047 135.9733 840.46118 840.46118
-108.2328 188.97717 855.10809 855.10809
-79.142509 46.77866 817.94849 817.94849
-169.64032 106.30802 828.5127 828.5127
-101.23161 156.21324 817.30444 817.30444
-22.47052 129.15112 843.96973 843.96973
-68.172714 132.25716 810.85687 810.85687
-25.668365 161.29962 873.22009 873.22009
-92.345512 184.78799 847.53662 847.53662
-155.98479 74.022751 821.31781 821.31781
-63.126465 7.5652175 890.19421 890.19421
-100.68177 124.75729 803.11548 803.11548
-160.63768 58.987976 831.87451 831.87451
-128.89265 40.775375 824.78259 824.78259
-18.00061 66.01194 853.94666 853.94666
-183.77953 50.120266 877.79633 877.79633
-30.897781 52.952183 845.1239 845.1239
-4.6845856 125.40456 883.58112 883.58112
-105.73489 134.66946 806.37769 806.37769
-127.8146 120.02682 806.05707 806.05707
-126.29197 183.28256 851.28912 851.28912
-91.288269 106.71834 800.60699 800.60699
-143.21513 149.41762 824.56555 824.56555
-168.29863 89.864227 827.66351 827.66351
-5.734314 83.705505 870.87152 870.87152
-31.843475 136.67474 836.67822 836.67822
-137.19389 66.885269 813.28192 813.28192
-33.794983 32.058372 868.36407 868.36407
-51.932343 181.6908 868.12347 868.12347
-136.43228 182.03525 855.92157 855.92157
-97.294296 42.350662 818.33459 818.33459
-139.33772 134.37834 814.73175 814.73175
-82.674316 166.80705 827.63538 827.63538
-82.373581 132.00589 806.91437 806.91437
-139.70592 121.84457 810.85822 810.85822
-89.579056 104.98219 800.66931 800.66931
-57.213104 70.569084 814.54181 814.54181
-139.01022 164.23169 834.02655 834.02655
-132.6851 139.21042 814.01031 814.01031
-75.902138 136.47095 810.06024 810.06024
-110.7456 101.09905 800.58508 800.58508
-82.947906 28.106768 832.61609 832.61609
-26.470535 45.040543 860.34052 860.34052
-52.967346 130.39003 817.1485 817.1485
-68.24054 150.20569 819.5592 819.5592
-20.603088 49.350933 866.37256 866.37256
-141.556 85.246368 810.24792 810.24792
-101.34208 104.14819 800.09509 800.09509
-61.069351 24.437828 847.32397 847.32397
-150.90237 79.36541 816.43469 816.43469
-47.888596 108.65297 815.09106 815.09106
-37.378586 138.41878 832.15784 832.15784
-178.45483 72.892014 844.23267 844.23267
-26.607758 108.42828 832.60162 832.60162
-24.761993 161.28 875.8338 875.8338
-17.281479 79.702286 847.60107 847.60107
-91.53801 199.14772 890.09424 890.09424
-10.079712 132.87486 871.12811 871.12811
-134.50592 41.389767 826.69116 826.69116
-167.29736 54.798611 841.45172 841.45172
-163.82321 90.475052 823.60712 823.60712
-55.253494 49.2314 826.37732 826.37732
-50.035294 37.344311 840.18536 840.18536
-66.544876 68.695076 811.11377 811.11377
-120.51266 23.248138 839.26794 839.26794
-52.284317 127.37961 816.49207 816.49207
-103.1748 47.937931 814.68024 814.68024
-97.861778 59.909039 808.41321 808.41321
-119.85831 11.536379 857.81189 857.81189
-171.59633 71.349297 836.336 836.336
-37.858261 99.943909 821.65204 821.65204
-57.745468 11.81019 879.09277 879.09277
-197.04874 81.217697 884.87494 884.87494
-95.547829 168.57941 827.35675 827.35675
-154.33041 138.14784 825.21399 825.21399
-194.67 93.172203 868.52026 868.52026
-120.6352 190.27823 862.26367 862.26367
-108.7345 149.70245 813.66705 813.66705
-80.116295 66.187904 808.01422 808.01422
-130.00137 122.96518 807.41211 807.41211
-72.114059 161.13576 825.94061 825.94061
-28.597885 136.01076 839.95868 839.95868
-22.686172 56.489616 853.85437 853.85437
-171.79276 79.201164 833.56799 833.56799
-71.486176 135.83653 811.10284 811.10284
-79.679657 162.19104 824.37354 824.37354
-130.11069 41.185585 824.9386 824.9386
-98.04174 42.452118 818.24176 818.24176
-61.099701 151.58487 823.67328 823.67328
-85.171303 126.59196 804.7478 804.7478
-129.59518 49.165016 819.13019 819.13019
-49.226624 107.97248 814.21826 814.21826
-18.253204 45.285774 882.00513 882.00513
-184.45215 70.146965 855.54071 855.54071
-33.405075 119.28192 827.9353 827.9353
-144.69534 111.45815 811.28113 811.28113
-62.354446 66.566376 813.59973 813.59973
-66.361237 15.984742 857.45746 857.45746
-82.405365 17.692667 846.00061 846.00061
-114.38306 36.667614 823.95966 823.95966
-61.204254 94.783081 807.98004 807.98004
-140.52679 44.993767 826.98016 826.98016
-65.643875 135.35049 812.99426 812.99426
-89.975586 173.69278 833.15027 833.15027
-37.113815 56.024315 835.87927 835.87927
-144.23465 62.112606 818.71136 818.71136
-35.190384 44.873016 847.45734 847.45734
-46.696732 160.14941 840.4953 840.4953
-141.44894 175.60974 849.35266 849.35266
-171.5589 96.736488 830.22412 830.22412
-142.89548 41.763096 830.94611 830.94611
-17.202606 137.37096 858.19086 858.19086
-149.09645 22.651155 859.91638 859.91638
-57.827133 116.71878 810.88251 810.88251
-97.172394 186.34482 849.63556 849.63556
-98.730042 145.36342 810.89026 810.89026
-20.632004 144.18687 858.18805 858.18805
-112.52029 148.92752 813.69043 813.69043
-123.80808 20.776728 843.81415 843.81415
-64.091675 62.217693 814.659 814.659
-186.58815 138.82423 868.45367 868.45367
-63.175858 56.744034 817.70233 817.70233
-127.96216 12.373549 860.76068 860.76068
-98.533775 35.31052 823.75616 823.75616
-26.191833 101.56753 832.54706 832.54706
-178.93736 101.76572 838.63409 838.63409
-88.329491 47.34203 815.7923 815.7923
-144.79874 97.002197 810.6463 810.6463
-25.329071 120.67583 836.78003 836.78003
-156.54395 96.420219 817.59875 817.59875
-32.770721 166.33873 867.14581 867.14581
-12.626297 95.824608 851.53967 851.53967
-148.13762 157.9857 834.27002 834.27002
-68.825806 59.01112 814.27905 814.27905
-135.81631 64.504166 813.64471 813.64471
-72.191261 145.52664 815.4187 815.4187
-100.89364 134.44196 806.12268 806.12268
-123.32626 98.048958 802.7782 802.7782
-34.048874 151.65065 845.38629 845.38629
-12.82933 148.18768 891.09937 891.09937
-53.79422 118.2738 813.21814 813.21814
-107.82172 7.2320857 863.4906 863.4906
-14.369553 105.71291 848.6698 848.6698
-124.9061 141.62201 812.55121 812.55121
-178.01854 161.05103 886.36621 886.36621
-118.08281 96.096245 801.72601 801.72601
-160.6181 141.51096 832.15985 832.15985
-10.787628 144.81125 894.24634 894.24634
-155.76096 55.007893 830.24023 830.24023
-53.060883 27.957598 848.94501 848.94501
-126.62275 100.68941 803.61145 803.61145
-158.48618 92.374306 819.24597 819.24597
-128.02837 189.55945 865.4527 865.4527
-100.46745 141.87192 809.18964 809.18964
-44.670288 91.244057 817.16309 817.16309
-171.9203 31.8183 886.63123 886.63123
-113.25023 36.992725 823.48523 823.48523
-141.2137 78.70256 811.41193 811.41193
-173.91895 101.78545 832.67389 832.67389
-139.00018 191.31691 888.15912 888.15912
-162.53653 112.05688 822.90387 822.90387
-50.132629 56.128895 825.24329 825.24329
-151.71506 151.89806 831.94012 831.94012
-139.20511 33.668911 836.2572 836.2572
-108.49061 2.3452733 880.21454 880.21454
-76.401352 177.17451 840.94751 840.94751
-144.00101 38.578903 834.49152 834.49152
-127.71331 30.284065 833.88147 833.88147
-120.18446 82.777824 803.58429 803.58429
-132.87613 45.557121 822.83051 822.83051
-135.09537 69.540428 811.45325 811.45325
-98.604012 82.443436 801.56311 801.56311
-79.438713 77.048965 804.86597 804.86597
-95.723427 65.530434 806.22601 806.22601
-37.894363 114.05025 822.89307 822.89307
-90.597466 113.33057 801.33954 801.33954
-159.90538 143.99368 833.09784 833.09784
-160.56616 48.231079 839.57056 839.57056
-195.01727 75.78775 880.36627 880.36627
-72.507011 172.52248 836.8761 836.8761
-143.64828 104.80219 810.15698 810.15698
-123.18174 39.847904 823.55176 823.55176
-86.192963 27.87245 832.12524 832.12524
-123.27838 132.11536 808.20282 808.20282
-37.707443 95.311012 821.91254 821.91254
-133.99673 191.09435 876.63245 876.63245
-90.669159 95.961571 800.51819 800.51819
-70.267929 154.84727 821.84772 821.84772
-94.354225 34.525249 824.6264 824.6264
-70.340714 65.310577 811.02264 811.02264
-92.352036 58.899319 809.15814 809.15814
-29.036819 121.95126 833.0495 833.0495
-53.495895 113.29162 812.47455 812.47455
-47.778839 106.36412 814.95618 814.95618
-161.35895 141.08719 832.56915 832.56915
-32.493073 118.04748 828.46606 828.46606
-172.38568 105.59512 831.23224 831.23224
-152.80884 177.97452 866.36664 866.36664
-116.17475 115.80088 802.58997 802.58997
-111.15868 141.69107 809.79279 809.79279
-16.360672 110.66528 846.23462 846.23462
-65.063751 99.959679 806.30127 806.30127
-77.004669 158.92508 822.54645 822.54645
-162.41425 110.72613 822.6087 822.6087
-24.780502 110.00885 834.87048 834.87048
-69.614059 24.373125 842.05804 842.05804
-76.660446 95.83065 802.85126 802.85126
-151.40797 177.70309 863.67578 863.67578
-72.94313 37.030739 827.17969 827.17969
-70.928879 86.302162 805.3045 805.3045
-65.050888 146.35966 818.57922 818.57922
-119.71201 144.45285 812.61932 812.61932
-115.3035 164.6152 825.22919 825.22919
-72.384537 84.093925 805.21399 805.21399
-166.33308 98.071762 825.1922 825.1922
-63.224457 138.17235 815.20361 815.20361
-94.8993 16.430695 845.31769 845.31769
-172.91968 144.04582 847.62933 847.62933
-176.28844 61.826687 847.81885 847.81885
-81.003822 142.09213 811.30164 811.30164
-60.693878 67.153893 814.11542 814.11542
-72.254036 67.984962 809.41742 809.41742
-138.86618 83.789116 809.29926 809.29926
-117.86928 171.62106 832.53809 832.53809
-104.12796 141.58511 809.15045 809.15045
-146.60841 160.89464 835.81665 835.81665
-63.725861 23.116329 847.33984 847.33984
-149.07492 153.36108 831.12152 831.12152
-93.771103 104.41626 800.29193 800.29193
-61.971191 76.23365 810.61896 810.61896
-53.267548 158.92558 834.0921 834.0921
-41.478104 154.82446 840.255 840.255
-55.406708 133.38072 816.95081 816.95081
-149.18948 186.96623 895.84436 895.84436
-180.86514 151.0932 870.83984 870.83984
-104.91898 197.23318 877.16339 877.16339
-102.49512 53.479481 811.51489 811.51489
-139.20781 116.0699 809.42126 809.42126
-144.65393 113.9911 811.62427 811.62427
-84.372627 73.147881 804.94873 804.94873
-78.14286 186.50443 854.84192 854.84192
-152.84999 140.91565 825.61731 825.61731
-43.848236 131.49016 823.47974 823.47974
-33.729309 120.74362 828.04236 828.04236
-188.18872 131.29875 864.74182 864.74182
-111.75923 169.95285 829.51367 829.51367
-155.37509 156.72743 839.04431 839.04431
-120.97697 176.68262 839.33911 839.33911
-147.47714 171.6521 848.89325 848.89325
-52.717972 73.806808 815.86719 815.86719
-78.852585 81.560165 804.01685 804.01685
-44.665329 113.42924 817.79456 817.79456
-84.992302 110.44246 801.68561 801.68561
-134.42453 143.18906 816.63538 816.63538
-122.29498 10.185214 862.10229 862.10229
-166.20801 73.608047 829.85754 829.85754
-81.897804 61.342747 809.56812 809.56812
-173.41475 166.16734 884.76331 884.76331
-138.90607 19.130823 855.88092 855.88092
-59.619568 77.640564 811.28992 811.28992
-128.18896 15.937236 853.7525 853.7525
-132.10483 147.27473 817.93677 817.93677
-109.69684 75.633682 803.5 803.5
-78.222824 50.010544 816.17395 816.17395
-164.36301 104.94955 823.62653 823.62653
-153.88338 175.19165 862.01581 862.01581
-37.8349 61.254101 831.92462 831.92462
-155.60593 128.45827 821.90961 821.90961
-192.79912 77.813011 870.06573 870.06573
-102.29093 66.733208 805.72345 805.72345
-137.25616 162.09227 831.03241 831.03241
-147.57704 68.485229 817.88275 817.88275
-2.0602112 87.684731 883.99585 883.99585
-137.17287 58.401299 817.00769 817.00769
-62.448608 164.68634 833.62555 833.62555
-99.694885 79.403069 802.14465 802.14465
-149.30107 107.7728 813.34558 813.34558
-7.7680664 63.403927 887.59039 887.59039
-49.304855 19.731861 868.58301 868.58301
-15.78595 98.124367 846.10681 846.10681
-60.095566 138.34479 816.70947 816.70947
-170.96518 155.983 857.22327 857.22327
-185.93959 134.32794 862.10565 862.10565
-122.42886 156.96503 820.93085 820.93085
-86.513008 113.2038 801.79736 801.79736
-28.808792 163.98447 871.05524 871.05524
-175.95932 135.7451 845.66339 845.66339
-152.11398 152.97255 833.08185 833.08185
-24.89827 56.254459 850.54236 850.54236
-79.960083 37.565258 824.49963 824.49963
-157.59888 129.144 823.62592 823.62592
-132.14941 79.088509 807.64673 807.64673
-170.09006 77.564552 832.29449 832.29449
-120.60136 140.61609 810.97241 810.97241
-37.193985 45.458603 844.49646 844.49646
-71.819244 86.030609 805.07532 805.07532
-165.98613 171.45067 876.74847 876.74847
-157.48074 90.094902 818.77283 818.77283
-121.89619 172.90666 835.15265 835.15265
-117.31912 142.85951 811.32581 811.32581
-15.458466 56.913799 868.43567 868.43567
-150.26367 170.99313 850.66907 850.66907
-94.653008 109.71542 800.61682 800.61682
-67.967728 126.81519 809.14362 809.14362
-79.965378 185.29036 851.79034 851.79034
-31.800003 99.026077 826.87128 826.87128
-82.069183 33.4617 827.53528 827.53528
-51.482651 141.54678 823.0589 823.0589
-93.70462 162.78807 822.42407 822.42407
-124.89413 72.823471 807.03918 807.03918
-66.004639 52.273853 818.96588 818.96588
-40.423584 157.06551 843.48291 843.48291
-152.14322 107.35914 814.98865 814.98865
-26.190964 153.60555 859.02838 859.02838
-168.73137 166.12856 869.94983 869.94983
-84.906433 192.33345 864.6911 864.6911
-57.171112 169.14822 841.82605 841.82605
-136.12845 86.132278 807.79144 807.79144
-76.57753 168.56429 831.07739 831.07739
-79.967987 193.05791 869.35779 869.35779
-186.00632 140.98254 869.6134 869.6134
-192.84853 113.90241 865.56348 865.56348
-39.174728 147.36751 836.30853 836.30853
-85.050903 135.61873 807.76208 807.76208
-121.85159 153.95641 818.69061 818.69061
-142.06767 146.75383 822.25433 822.25433
-85.983894 195.94865 875.55817 875.55817
-37.329605 153.41812 843.2644 843.2644
-63.128647 113.0629 807.96814 807.96814
-28.048416 95.268501 830.71375 830.71375
-110.83621 113.63413 801.52826 801.52826
-175.08966 107.14701 834.34589 834.34589
-43.639145 47.444458 836.27112 836.27112
-77.519897 95.330902 802.67145 802.67145
-113.11268 67.063896 806.49457 806.49457
-120.59045 78.748703 804.47821 804.47821
-70.001404 19.370739 849.01953 849.01953
-126.85127 71.69368 807.92523 807.92523
-145.37309 135.48958 818.25787 818.25787
-36.412262 69.66555 829.03223 829.03223
-69.609772 179.14478 846.96661 846.96661
-146.53069 80.783592 813.59613 813.59613
-36.879868 75.91745 826.27161 826.27161
-82.433189 2.9638574 883.40497 883.40497
-60.959579 171.20088 841.63666 841.63666
-132.69193 79.451698 807.75574 807.75574
-33.085693 82.37532 827.80688 827.80688
-117.49282 31.103252 829.66339 829.66339
-114.01312 90.549278 801.43878 801.43878
-118.99646 145.28831 812.89026 812.89026
-30.944427 163.66876 865.68359 865.68359
-127.41946 56.983547 813.98975 813.98975
-105.31264 188.33052 853.42218 853.42218
-100.32634 66.301643 805.84949 805.84949
-83.036354 69.858078 806.172 806.172
-152.72652 34.656666 845.68457 845.68457
-116.534 141.2142 810.40082 810.40082
-130.72955 188.93626 866.14685 866.14685
-154.84666 74.968269 820.21747 820.21747
-49.534821 107.9501 814.03455 814.03455
-61.804474 14.241838 865.55237 865.55237
-46.750397 162.57449 843.00079 843.00079
-0.12088013 99.705292 895.09344 895.09344
-58.245483 96.714958 809.19379 809.19379
-28.731232 53.509491 847.47003 847.47003
-77.178932 101.32855 802.64789 802.64789
-78.5597 24.573055 837.94287 837.94287
-62.682098 128.38297 811.6723 811.6723
-35.688049 102.25729 823.45667 823.45667
-90.205894 159.95323 820.56647 820.56647
-167.59375 142.49855 839.79236 839.79236
-104.976 39.941193 820.1991 820.1991
-98.239197 62.275391 807.40546 807.40546
-79.23806 170.68578 832.38 832.38
-74.667068 98.515091 803.27338 803.27338
-107.70065 126.72749 803.94617 803.94617
-107.78362 191.72911 860.94635 860.94635
-97.788528 160.49182 820.40198 820.40198
-64.924973 96.307495 806.4259 806.4259
-123.99055 146.38446 814.71851 814.71851
-108.24045 170.65839 829.71851 829.71851
-29.354935 162.3544 866.51563 866.51563
-45.898438 180.49301 875.63 875.63
-52.620239 166.23691 841.96698 841.96698
-74.668327 179.28848 844.57758 844.57758
-144.91202 82.131104 812.45795 812.45795
-53.080063 29.600805 846.68518 846.68518
-102.07749 57.318592 809.5899 809.5899
-92.956161 190.18208 857.36694 857.36694
-130.07104 82.834862 806.18585 806.18585
-105.77546 185.33009 848.17896 848.17896
-98.745712 42.042297 818.51788 818.51788
-9.8294678 70.040115 868.82819 868.82819
-127.19006 26.38501 838.0199 838.0199
-0.14141846 96.943428 895.65021 895.65021
-23.148331 157.3884 871.7088 871.7088
-177.17589 94.355873 836.65942 836.65942
-124.04003 177.19319 841.15027 841.15027
-27.674271 79.197845 834.14972 834.14972
-153.61142 67.116104 822.25385 822.25385
-70.426224 65.328186 810.9873 810.9873
-40.642746 144.43362 832.90033 832.90033
-92.565918 17.451891 844.04871 844.04871
-142.0351 178.4541 854.41486 854.41486
-133.51877 15.676153 857.97644 857.97644
-60.473801 152.0229 824.29468 824.29468
-168.51161 77.246132 830.80157 830.80157
-111.32813 42.788147 818.76898 818.76898
-48.638077 68.699936 820.11096 820.11096
-2.4793549 105.41106 878.54205 878.54205
-113.04732 72.472687 804.75287 804.75287
-95.736374 184.52271 846.72961 846.72961
-15.889679 77.522186 850.80444 850.80444
-84.422997 59.772278 809.78308 809.78308
-44.685684 138.35071 826.04358 826.04358
-95.902992 75.180115 803.21576 803.21576
-45.253067 179.10179 872.69287 872.69287
-121.2624 12.382513 856.74396 856.74396
-83.078384 176.53397 837.90161 837.90161
-134.68393 31.267769 836.18066 836.18066
-25.234573 88.313515 834.62756 834.62756
-179.71187 134.74324 850.6145 850.6145
-136.84862 56.715202 817.72845 817.72845
-20.301498 62.310265 852.80219 852.80219
-43.760849 74.428368 821.36633 821.36633
-141.13925 53.2775 821.74036 821.74036
-162.68469 76.784782 825.62469 825.62469
-84.276459 53.882771 812.67322 812.67322
-183.11104 123.59246 849.64178 849.64178
-20.200592 122.23643 843.98572 843.98572
-68.657181 30.727451 835.04663 835.04663
-118.46198 157.28697 820.1416 820.1416
-106.2092 121.64845 802.56903 802.56903
-114.97683 172.20193 832.45319 832.45319
-42.899124 165.19492 850.10901 850.10901
-26.451675 65.64444 841.60187 841.60187
-88.352119 65.893852 806.72034 806.72034
-49.088333 119.13018 816.08313 816.08313
-93.789017 192.58311 862.72009 862.72009
-80.066322 136.11301 808.90393 808.90393
-87.572601 140.63092 809.47546 809.47546
-146.00655 91.484558 811.62079 811.62079
-68.749802 173.66782 840.02936 840.02936
-97.564186 134.71242 806.24969 806.24969
-70.858627 25.206482 840.36182 840.36182
-53.197571 168.34419 843.97675 843.97675
-96.104118 131.29134 805.10175 805.10175
-60.459656 117.56677 809.84473 809.84473
-169.36255 69.138084 834.91254 834.91254
-90.249168 45.487396 816.73358 816.73358
-31.133942 114.09566 828.87494 828.87494
-24.990875 48.096809 859.01599 859.01599
-67.213959 105.98456 805.7171 805.7171
-110.46037 124.72826 803.67194 803.67194
-191.25113 59.378666 895.18976 895.18976
-145.56729 59.022861 820.97791 820.97791
-63.50351 142.11064 816.9657 816.9657
-47.039795 42.527786 837.61279 837.61279
-147.05164 173.0576 850.51538 850.51538
-173.2515 103.30923 832.00537 832.00537
-98.80719 194.08788 866.14667 866.14667
-135.81711 93.027107 806.89514 806.89514
-99.048485 12.558958 851.4906 851.4906
-40.483612 106.60513 819.9115 819.9115
-78.678596 47.539158 817.5788 817.5788
-80.388664 14.560085 851.88123 851.88123
-39.689102 112.62672 821.23987 821.23987
-165.76115 170.20659 872.67773 872.67773
-141.02048 33.363194 837.7356 837.7356
-40.317352 123.12615 823.16797 823.16797
-152.02748 170.6758 852.06177 852.06177
-132.09213 87.283318 806.14703 806.14703
-195.91887 117.80453 878.03253 878.03253
-137.30627 95.03083 807.35254 807.35254
-95.06942 113.8323 801.08411 801.08411
-112.16492 37.472492 822.91351 822.91351
-155.00766 134.02957 823.73633 823.73633
-152.29184 82.438354 816.59045 816.59045
-21.253708 93.222137 838.73761 838.73761
-79.414818 182.61497 847.54987 847.54987
-77.429962 116.00967 803.90479 803.90479
-102.34613 57.40556 809.55548 809.55548
-48.882751 148.87971 829.30487 829.30487
-175.19266 121.00397 837.5108 837.5108
-131.43198 12.23535 863.81439 863.81439
-162.97931 64.938606 830.68689 830.68689
-34.857407 164.90135 860.70294 860.70294
-184.71684 82.037834 849.99585 849.99585
-83.520798 32.958622 827.65436 827.65436
-64.099487 109.79101 807.1814 807.1814
-174.14264 124.73632 837.62225 837.62225
-145.99644 136.22858 818.93323 818.93323
-88.80764 71.522987 804.79608 804.79608
-127.15294 187.20918 859.29034 859.29034
-83.985161 88.251701 801.99231 801.99231
-176.61343 113.90001 837.25311 837.25311
-63.679092 104.11239 806.92004 806.92004
-87.637115 89.603737 801.31323 801.31323
-138.72772 140.87773 817.36121 817.36121
-106.11069 109.54921 800.64471 800.64471
-133.84563 41.094673 826.61993 826.61993
-122.73247 39.570107 823.63599 823.63599
-99.07061 31.053404 827.57416 827.57416
-29.014725 125.70756 834.42401 834.42401
-121.08328 14.621573 852.39728 852.39728
-74.094513 131.46387 808.68225 808.68225
-74.130424 92.390686 803.70428 803.70428
-101.55451 119.65546 801.96301 801.96301
-83.773277 112.2396 802.08734 802.08734
-165.09058 152.5981 845.2583 845.2583
-87.291977 56.838383 810.69391 810.69391
-84.069191 107.18511 801.53894 801.53894
-98.149254 147.29128 811.90851 811.90851
-62.895645 153.07266 823.79919 823.79919
-14.190369 90.495392 849.53845 849.53845
-14.95726 73.098579 854.78888 854.78888
-126.02827 112.66434 804.28088 804.28088
-128.34076 4.4102297 892.29297 892.29297
-104.66408 23.623901 835.61877 835.61877
-192.67445 102.77276 862.53326 862.53326
-129.08551 156.96552 823.13025 823.13025
-189.26082 132.63742 868.8985 868.8985
-170.49922 141.70586 842.63727 842.63727
-91.431007 144.15651 810.68719 810.68719
-149.35434 154.09843 831.90076 831.90076
-65.857513 102.21846 806.03528 806.03528
-172.55312 106.66208 831.50427 831.50427
-117.64268 174.03325 835.13232 835.13232
-34.42334 89.930618 825.17816 825.17816
-31.984467 45.723141 850.7262 850.7262
-97.954201 12.349164 851.90485 851.90485
-56.153763 142.00589 820.54553 820.54553
-91.233849 74.581741 803.6825 803.6825
-62.188828 130.01534 812.42493 812.42493
-92.385117 22.01959 837.86249 837.86249
-42.690063 62.895149 826.93292 826.93292
-78.314819 17.174997 848.3302 848.3302
-51.322998 57.854855 823.48639 823.48639
-184.25398 100.35585 846.13776 846.13776
-42.847015 30.38765 856.5528 856.5528
-55.986908 149.13263 824.84131 824.84131
-46.71579 126.17031 819.52698 819.52698
-31.798752 107.27367 827.22858 827.22858
-71.455688 73.431137 807.91681 807.91681
-133.72369 121.4933 808.34436 808.34436
-74.619743 139.46956 811.69373 811.69373
-99.621834 120.92712 802.21497 802.21497
-86.522255 48.72987 815.20776 815.20776
-114.66994 60.92326 809.12756 809.12756
-30.695251 143.06952 842.1911 842.1911
-189.28752 108.91415 855.86072 855.86072
-73.029579 153.9339 820.22699 820.22699
-177.2305 135.22357 847.13458 847.13458
-132.32199 109.13292 805.80933 805.80933
-68.852173 153.89601 821.73743 821.73743
-112.62918 63.765167 807.65533 807.65533
-51.355881 152.81482 830.39868 830.39868
-97.324081 6.6775484 864.17041 864.17041
-154.99728 60.510689 826.40723 826.40723
-92.863914 192.77971 863.38031 863.38031
-70.197922 104.23069 804.63788 804.63788
-78.171608 195.43512 879.6123 879.6123
-56.949478 78.598938 812.31506 812.31506
-86.150185 106.74693 801.19385 801.19385
-26.742203 80.304199 834.84351 834.84351
-111.32912 75.346283 803.7511 803.7511
-35.27272 113.11063 824.9101 824.9101
-119.59444 52.307297 814.31763 814.31763
-143.07434 43.61438 829.5354 829.5354
-79.518036 41.2925 821.68066 821.68066
-168.1387 61.887295 837.51367 837.51367
-35.959702 164.55965 858.396 858.396
-104.67101 94.334862 800.2699 800.2699
-183.0674 114.09319 846.13733 846.13733
-120.07391 94.55249 802.18713 802.18713
-149.07509 128.80579 817.76947 817.76947
-54.965622 97.433022 810.7514 810.7514
-54.909668 25.123734 851.41595 851.41595
-72.909859 6.0929275 878.84375 878.84375
-163.69806 157.29431 848.4256 848.4256
-184.04372 54.252769 870.95099 870.95099
-145.0069 16.171597 869.22375 869.22375
-38.765915 118.01241 823.0199 823.0199
-130.33051 25.573719 840.49548 840.49548
-58.277695 189.35605 883.42456 883.42456
-117.61964 87.053856 802.41956 802.41956
-125.89017 171.1925 834.72119 834.72119
-94.440605 2.1538947 880.11957 880.11957
-103.38606 103.63133 800.12335 800.12335
-157.00172 145.49548 831.5824 831.5824
-105.96485 154.61086 816.44116 816.44116
-163.48718 121.09417 825.67358 825.67358
-93.232895 174.11668 833.20984 833.20984
-55.984161 149.25354 824.92206 824.92206
-72.356857 58.646732 813.24884 813.24884
-175.26715 150.45172 857.69775 857.69775
-108.47357 40.120426 820.35931 820.35931
-64.73407 9.0340319 878.0567 878.0567
-155.88123 118.49734 819.15979 819.15979
-123.83796 85.201767 804.01685 804.01685
-39.635498 40.696392 846.71576 846.71576
-36.033157 136.18123 832.18286 832.18286
-79.292343 86.948051 803.04205 803.04205
-115.5276 29.921478 830.37317 830.37317
-144.82092 151.02219 826.59821 826.59821
-18.738342 63.158894 854.84167 854.84167
-172.06155 120.91605 833.89667 833.89667
-109.38142 76.912872 803.15491 803.15491
-70.508301 186.10719 858.57788 858.57788
-114.26592 92.085953 801.33972 801.33972
-124.2263 148.64003 816.05219 816.05219
-51.523773 170.13901 847.74512 847.74512
-87.219986 173.65572 833.58081 833.58081
-31.682556 95.942673 827.08728 827.08728
-116.22212 5.3421721 872.13 872.13
-59.941681 101.2916 808.38306 808.38306
-97.520386 130.85838 804.9126 804.9126
-159.47583 47.57769 839.0531 839.0531
-154.80722 81.325172 818.46826 818.46826
-131.04816 187.99561 864.04468 864.04468
-96.589806 184.47816 846.59766 846.59766
-189.33759 125.19862 862.80017 862.80017
-137.41507 110.80532 807.89484 807.89484
-81.834663 101.63095 801.67725 801.67725
-72.059563 59.713829 812.8429 812.8429
-56.144913 65.356789 817.07483 817.07483
-159.57614 40.942497 845.5675 845.5675
-166.82814 38.846878 857.64087 857.64087
-70.270233 178.24983 845.29071 845.29071
-133.60104 124.27714 808.99677 808.99677
-66.386475 54.575562 817.49695 817.49695
-89.077629 125.81332 804.00848 804.00848
-27.610306 129.78879 837.77173 837.77173
-41.803009 146.57336 833.33643 833.33643
-122.74361 19.142982 845.73334 845.73334
-131.74887 54.366409 816.8761 816.8761
-192.63109 126.96486 873.68695 873.68695
-100.45507 84.36454 801.23096 801.23096
