# .PCD v0.7 - Point Cloud Data file format
VERSION 0.7
FIELDS x y z intensity
SIZE 4 4 4 4
TYPE F F F F
COUNT 1 1 1 1
WIDTH 1193
HEIGHT 1
VIEWPOINT 0 0 0 1 0 0 0
POINTS 1193
DATA ascii
-29.507477 139.4722 762.98706 762.98706
-31.110191 83.558914 756.39526 756.39526
-33.082542 28.918064 787.92822 787.92822
-52.438957 114.34401 766.06903 766.06903
63.058929 95.165314 772.53906 772.53906
14.434143 126.73273 754.72662 754.72662
-60.661373 113.9107 771.72681 771.72681
-30.840668 109.59098 755.35925 755.35925
-2.8885651 43.451416 767.57483 767.57483
0.61785889 133.65166 755.83429 755.83429
-28.220009 153.79156 770.56384 770.56384
-18.133186 137.69888 759.17059 759.17059
40.706192 45.032864 777.05054 777.05054
-36.292786 54.02972 768.94714 768.94714
69.036911 84.238075 779.39215 779.39215
60.953705 81.073853 773.0166 773.0166
7.2162857 128.72922 754.48792 754.48792
-73.714966 47.598629 807.33618 807.33618
-0.33228302 67.842606 755.31213 755.31213
-87.389847 55.747562 829.88196 829.88196
52.32666 61.03038 774.21552 774.21552
75.68132 130.69379 792.29187 792.29187
12.987175 8.1303387 812.69989 812.69989
71.188339 31.029316 836.76123 836.76123
15.327629 151.38492 765.59235 765.59235
-28.637657 173.5085 788.54773 788.54773
-3.4963379 109.34539 750.49902 750.49902
-1.951889 196.9846 825.70642 825.70642
-79.460129 114.63911 791.07813 791.07813
6.5590134 100.12894 750.21539 750.21539
3.8245468 94.644699 750.2168 750.2168
-17.357056 24.945623 786.23816 786.23816
79.697632 120.09957 793.04126 793.04126
73.234879 136.0584 792.23804 792.23804
-95.318405 108.31742 820.92731 820.92731
63.571396 84.347351 774.41113 774.41113
-40.311062 156.1237 777.71484 777.71484
-93.57563 103.08839 814.87079 814.87079
-99.065994 100.69228 836.38202 836.38202
75.287949 81.534561 786.82758 786.82758
-12.108719 144.9895 761.51654 761.51654
-36.319141 185.19585 812.28278 812.28278
11.834297 182.23062 794.33966 794.33966
-47.83622 166.50665 792.65399 792.65399
33.067673 44.721436 773.5094 773.5094
-37.307091 132.55495 763.11871 763.11871
-48.345192 140.52684 772.4093 772.4093
84.873398 52.080524 827.63416 827.63416
-39.922791 72.971024 762.38947 762.38947
-4.0681 133.75967 755.95886 755.95886
-43.374168 104.22334 759.9953 759.9953
4.3417587 175.76797 784.88196 784.88196
20.512093 75.025139 755.36646 755.36646
62.20491 25.463619 826.02338 826.02338
-86.566772 51.661003 836.97943 836.97943
14.695511 47.779823 765.99347 765.99347
-19.995346 58.384495 761.29639 761.29639
5.6491699 41.685753 768.95966 768.95966
55.837555 160.25778 792.98102 792.98102
-55.755035 44.37886 788.37482 788.37482
27.716125 21.6406 794.39764 794.39764
50.876572 19.390127 819.7738 819.7738
-72.956741 149.94188 803.27612 803.27612
-49.851109 174.58624 805.82129 805.82129
-3.324173 56.368973 760.08179 760.08179
90.835281 117.42271 811.98157 811.98157
52.420105 177.27075 814.20386 814.20386
65.300186 80.79673 776.73938 776.73938
-73.550407 108.86745 782.83075 782.83075
-35.262421 77.512932 759.16559 759.16559
-49.602711 82.438263 764.96381 764.96381
-23.564888 137.04538 760.15381 760.15381
-49.489967 143.56631 774.81543 774.81543
-0.2976532 43.04467 767.80511 767.80511
98.121613 103.49573 831.0282 831.0282
-41.028492 126.2366 762.65985 762.65985
-13.720764 79.104195 753.17487 753.17487
13.327789 115.76407 752.15387 752.15387
-60.980751 125.24465 774.87305 774.87305
10.410378 190.14983 807.99249 807.99249
-72.475807 68.949608 788.49286 788.49286
42.821671 64.13871 767.05261 767.05261
35.224564 97.992203 756.43079 756.43079
86.657928 76.222649 806.12469 806.12469
-25.566658 7.1617484 823.02954 823.02954
-99.647758 101.70538 841.78925 841.78925
-52.996971 29.032902 803.57813 803.57813
-84.341408 134.42908 808.75482 808.75482
-47.618843 87.011795 763.03015 763.03015
-74.597351 131.35159 791.24359 791.24359
-75.152328 75.027786 788.93842 788.93842
-7.677742 143.86601 760.46326 760.46326
86.864502 128.82825 809.70746 809.70746
44.990738 126.3737 764.67554 764.67554
-49.394585 86.557449 764.09613 764.09613
-28.072754 64.912003 760.66492 760.66492
-18.816734 68.905724 756.83844 756.83844
19.658569 85.239449 753.06873 753.06873
13.77652 26.902184 783.16504 783.16504
49.203354 28.400829 800.47638 800.47638
-8.4703598 102.98786 750.40417 750.40417
-38.681229 115.61227 759.11536 759.11536
-33.808746 16.074017 807.41595 807.41595
-76.073997 152.03999 811.211 811.211
-6.1952972 170.44882 779.29938 779.29938
-69.692696 67.461754 786.09235 786.09235
-88.348816 73.39045 811.44592 811.44592
22.518852 15.667417 801.20538 801.20538
-10.944199 44.603409 767.46851 767.46851
-35.926201 23.856283 796.04224 796.04224
-70.30011 105.69867 779.1098 779.1098
46.699127 127.60264 765.99237 765.99237
-24.649109 130.09727 757.87738 757.87738
-4.3190536 49.514469 763.78772 763.78772
-3.2122803 131.20465 755.04761 755.04761
-77.157402 41.60033 824.77673 824.77673
59.648621 125.92114 774.03857 774.03857
84.610123 71.574921 804.90961 804.90961
-4.6214294 112.22517 750.85773 750.85773
-85.512978 87.433357 799.70477 799.70477
21.250984 64.739243 758.8678 758.8678
-17.107468 71.223 755.77039 755.77039
-19.70697 60.966892 760.06641 760.06641
14.489639 131.67801 756.26337 756.26337
-14.43795 159.99005 771.30603 771.30603
-91.930313 114.65341 813.47473 813.47473
40.184891 162.83568 783.39032 783.39032
-16.312012 94.033623 751.51996 751.51996
-17.443306 188.41948 806.66724 806.66724
-86.03746 107.57934 799.60052 799.60052
52.686859 86.07653 766.1535 766.1535
34.309219 79.931549 758.23871 758.23871
-93.516357 96.167946 814.78625 814.78625
-47.624744 118.98157 764.14209 764.14209
-86.000908 114.53963 801.0874 801.0874
-45.288681 127.94469 765.33582 765.33582
-86.994843 107.74922 801.2984 801.2984
47.978165 88.212372 763.05664 763.05664
12.313805 148.60501 763.47876 763.47876
-68.398949 139.10114 788.41522 788.41522
97.142715 88.233559 829.38824 829.38824
-37.843304 180.23799 803.85077 803.85077
65.163345 110.92805 774.93793 774.93793
-9.89608 7.205934 814.06494 814.06494
-1.5124588 177.26367 786.5332 786.5332
-71.278351 44.15427 807.56592 807.56592
12.790596 165.16187 775.23145 775.23145
-20.107643 5.3196621 824.87396 824.87396
-59.611897 39.115536 797.65973 797.65973
-23.989777 128.49294 757.19568 757.19568
-67.071632 93.552414 776.10938 776.10938
-55.997448 114.86147 768.4928 768.4928
-61.175171 133.63159 778.40033 778.40033
17.547607 19.109617 793.88556 793.88556
47.80014 157.45859 783.56464 783.56464
57.493774 127.2948 772.86725 772.86725
-88.605133 86.005524 805.80402 805.80402
4.5021515 74.911758 753.30298 753.30298
-15.167488 161.1942 772.37775 772.37775
-54.110233 159.90576 790.9798 790.9798
58.737427 120.22667 771.63678 771.63678
-45.910519 78.506866 763.80096 763.80096
22.175873 149.30467 765.87341 765.87341
75.75174 47.422745 811.30493 811.30493
-27.693977 192.46104 823.84662 823.84662
18.129204 141.26558 760.73364 760.73364
50.611481 34.638779 793.72931 793.72931
75.716629 118.86784 787.46204 787.46204
-2.7266617 149.40536 763.09961 763.09961
85.137512 93.519096 797.94617 797.94617
-28.16629 117.03542 755.573 755.573
-64.399437 174.90706 834.45508 834.45508
-34.563217 156.69859 775.22931 775.22931
-63.358238 96.360748 772.71814 772.71814
12.365654 50.360363 764.07562 764.07562
-5.4573441 88.031998 750.86884 750.86884
10.296097 154.57387 766.83942 766.83942
-7.1970673 170.01944 778.96844 778.96844
-87.085907 92.026672 801.49774 801.49774
-47.799389 74.276489 766.01477 766.01477
50.699539 66.44783 770.60345 770.60345
33.366287 156.65623 774.6557 774.6557
-25.441345 134.8994 759.80701 759.80701
-45.768112 31.080624 793.82703 793.82703
-56.770687 119.71266 770.0719 770.0719
68.571777 39.176704 810.01953 810.01953
23.078331 193.66107 823.63727 823.63727
-70.159035 102.32947 778.78003 778.78003
-32.728745 44.306641 773.66467 773.66467
16.359833 77.022331 754.06055 754.06055
6.9099579 147.2308 762.12793 762.12793
77.054962 45.922447 816.26349 816.26349
12.996498 111.90841 751.56586 751.56586
-37.787777 182.12131 807.24286 807.24286
-87.058998 94.658127 801.0899 801.0899
-53.470005 99.714859 765.49628 765.49628
-57.068516 32.775925 802.83954 802.83954
-24.578621 152.94724 768.80591 768.80591
10.462715 183.89099 796.58807 796.58807
96.805984 76.232559 842.01813 842.01813
-15.461639 177.59152 788.84045 788.84045
23.023651 126.7869 756.44586 756.44586
-22.615044 59.641491 761.34479 761.34479
40.744476 108.56984 759.08002 759.08002
-59.355633 164.44209 801.79083 801.79083
71.236618 124.99471 784.42096 784.42096
25.234344 146.14355 764.94708 764.94708
64.086563 67.002937 780.68835 780.68835
-45.715981 111.47206 761.8045 761.8045
51.977341 43.798595 785.65906 785.65906
96.504791 124.66429 841.14008 841.14008
34.105545 141.62906 765.71576 765.71576
5.0528183 161.24289 771.10907 771.10907
-26.97168 95.289665 753.82129 753.82129
24.216934 195.15388 831.04535 831.04535
-1.6088181 50.648243 763.04132 763.04132
15.405167 140.40936 759.83478 759.83478
87.823517 136.49866 819.09888 819.09888
10.381546 143.42538 760.52118 760.52118
-12.641106 131.25723 755.85547 755.85547
-12.993759 85.539314 751.90796 751.90796
15.674927 63.802086 758.1087 758.1087
-24.015015 103.84187 753.0025 753.0025
34.787384 136.67996 763.71893 763.71893
56.447601 82.346031 769.36499 769.36499
-34.635048 151.11031 771.33521 771.33521
65.529221 115.18597 776.0047 776.0047
-88.263901 124.86064 810.10724 810.10724
67.994171 125.86508 781.38666 781.38666
25.156021 90.966972 753.63831 753.63831
21.274208 32.336422 779.50854 779.50854
-33.944252 103.67003 756.00891 756.00891
-92.904449 93.270721 813.62036 813.62036
-22.144569 17.232578 798.43286 798.43286
-42.627907 158.53879 781.03571 781.03571
66.493851 99.394211 775.31262 775.31262
-21.422638 45.872444 768.69025 768.69025
-16.608284 174.26768 785.12726 785.12726
97.980179 94.443039 830.79053 830.79053
0.3841629 137.20842 757.18091 757.18091
-62.831314 128.95967 777.79498 777.79498
0.72016907 16.784916 794.54974 794.54974
-46.446861 81.751892 763.34149 763.34149
78.985245 158.50122 831.58972 831.58972
-13.609108 41.455864 770.07892 770.07892
-26.481018 154.95842 770.7641 770.7641
66.439087 31.215933 820.76648 820.76648
67.5271 165.75316 816.58423 816.58423
-26.722374 150.7652 768.09265 768.09265
41.917435 172.53372 795.39423 795.39423
-24.699295 120.83614 755.36493 755.36493
-23.811813 81.971619 754.56427 754.56427
-10.866722 196.68243 826.88245 826.88245
18.819489 39.034035 773.00012 773.00012
34.639847 171.33896 789.08337 789.08337
-24.984337 23.341919 790.84497 790.84497
-62.664265 132.45755 779.15015 779.15015
17.683289 114.6357 752.67017 752.67017
29.731949 186.49687 809.57349 809.57349
-76.259933 149.94939 808.89673 808.89673
-16.186646 138.31017 759.05865 759.05865
-12.656578 175.36902 785.5072 785.5072
44.797256 45.117085 779.42328 779.42328
17.427193 67.614594 757.00818 757.00818
-46.226192 50.754524 776.25708 776.25708
-82.671234 139.27304 809.71234 809.71234
36.590637 15.203296 811.651 811.651
44.000702 54.905045 772.34448 772.34448
-74.730309 41.165634 819.11475 819.11475
24.742088 163.66246 776.95947 776.95947
-36.847187 173.33531 792.8667 792.8667
26.079559 97.670242 753.48871 753.48871
8.7480927 43.623314 767.87122 767.87122
-71.416351 145.79346 797.05981 797.05981
39.873749 36.546043 783.79065 783.79065
27.734467 118.36977 755.69543 755.69543
53.693954 109.85229 766.21521 766.21521
29.068024 52.225262 767.09869 767.09869
31.589676 141.77977 764.81464 764.81464
24.523102 30.428055 782.48438 782.48438
-66.285355 127.42013 780.32654 780.32654
-70.86998 123.00262 783.30426 783.30426
-30.366653 46.154854 771.39612 771.39612
-30.288727 84.176895 756.02008 756.02008
15.544617 193.62469 818.49158 818.49158
87.244919 146.2484 834.20728 834.20728
39.457184 18.578819 807.41217 807.41217
28.993195 63.949478 761.34473 761.34473
-66.917587 147.16106 792.57288 792.57288
91.571884 121.49069 816.04797 816.04797
89.003052 89.906403 805.54132 805.54132
33.507507 37.242973 779.72339 779.72339
-20.765617 37.075878 775.10443 775.10443
-63.53281 47.080074 793.75891 793.75891
-37.788086 121.5714 759.96259 759.96259
27.141914 60.008312 762.45581 762.45581
-28.692383 43.95977 772.30676 772.30676
-2.9837875 110.01022 750.54706 750.54706
-3.5491486 106.37646 750.2666 750.2666
-25.006607 188.24203 810.15015 810.15015
59.589844 31.652033 807.83832 807.83832
20.35788 20.404648 792.99005 792.99005
83.73793 115.63314 797.62097 797.62097
3.1538849 72.4496 753.92175 753.92175
-47.146385 13.164509 834.61121 834.61121
-9.0485535 35.562004 774.06671 774.06671
61.446548 143.82213 784.39557 784.39557
18.533386 50.315277 765.21826 765.21826
-66.492584 97.749512 775.34296 775.34296
45.697388 177.98099 807.21313 807.21313
-87.903519 139.22606 822.90228 822.90228
51.647049 175.71861 810.00909 810.00909
32.613403 127.01607 759.41028 759.41028
-70.060699 124.52986 782.99414 782.99414
85.309723 63.592918 812.62653 812.62653
-4.1851425 188.11958 802.91046 802.91046
-30.411636 47.888489 770.25342 770.25342
-6.4031143 20.959467 789.07715 789.07715
87.679916 109.35194 802.83252 802.83252
6.732872 163.19797 772.79456 772.79456
-87.463425 56.326157 828.9585 828.9585
-26.346298 98.103058 753.5517 753.5517
44.199554 37.111263 786.03589 786.03589
-87.030777 88.421562 802.12952 802.12952
15.21698 2.4338431 834.21112 834.21112
-6.8331909 26.044565 783.03809 783.03809
-92.431305 127.26508 823.29663 823.29663
-24.264954 90.820663 753.42383 753.42383
-22.427048 177.41852 790.81049 790.81049
34.91214 184.12283 808.71454 808.71454
-25.224258 169.90517 783.0896 783.0896
-61.42334 145.20833 785.32092 785.32092
-46.50581 155.25754 780.8349 780.8349
-94.416809 91.570259 818.15027 818.15027
-52.66238 88.983109 765.70703 765.70703
62.919968 50.019691 790.4765 790.4765
-33.466454 122.36012 758.45752 758.45752
-56.549477 156.51843 789.93481 789.93481
-36.015129 75.489899 759.98798 759.98798
-3.3641052 83.783714 751.38098 751.38098
-22.642357 19.987656 794.4541 794.4541
64.585861 83.535461 775.45081 775.45081
-43.280155 32.98243 789.70514 789.70514
47.148087 139.8933 771.3515 771.3515
31.807022 28.121529 788.17932 788.17932
-22.941788 182.49487 798.34473 798.34473
-28.437462 70.815575 758.67871 758.67871
-80.064606 149.05595 815.60272 815.60272
-23.071724 96.848167 752.74896 752.74896
11.160889 31.825117 777.69769 777.69769
41.642075 160.06036 781.74542 781.74542
-80.735275 129.68159 799.00177 799.00177
-60.661137 123.24596 773.97467 773.97467
-14.519989 142.1478 760.48615 760.48615
-58.236206 176.56056 822.66827 822.66827
-14.383865 152.93843 766.39001 766.39001
31.059128 22.179588 795.41693 795.41693
89.849106 82.459816 809.7572 809.7572
-33.115555 65.353531 762.23334 762.23334
-17.107704 112.483 752.26819 752.26819
-14.382187 66.403419 756.91711 756.91711
55.301743 139.78429 776.79529 776.79529
56.89241 31.493361 804.50171 804.50171
-28.476799 98.651878 754.14984 754.14984
90.154282 111.81206 808.37451 808.37451
14.109825 35.41465 774.96906 774.96906
-62.862701 102.03891 772.25604 772.25604
14.400658 61.753803 758.73199 758.73199
-46.243996 67.298141 767.58594 767.58594
-74.35305 68.282509 791.13043 791.13043
-87.959274 108.15513 803.13147 803.13147
-63.433552 90.286026 773.30695 773.30695
-8.7310638 78.444992 752.74182 752.74182
43.3396 138.86012 768.68842 768.68842
27.330635 183.31891 801.92719 801.92719
12.276718 29.340401 780.3114 780.3114
-27.157516 27.147528 787.11133 787.11133
19.106743 70.317986 756.43768 756.43768
-53.265781 15.80748 841.37585 841.37585
-92.166466 61.266792 847.74591 847.74591
-34.075104 139.49898 764.68457 764.68457
46.223999 88.190826 762.11438 762.11438
-25.636665 170.39539 783.76367 783.76367
36.831131 118.50713 758.89044 758.89044
-34.534714 10.566512 821.55701 821.55701
-33.366096 182.77335 804.88599 804.88599
-88.709763 139.99095 826.95001 826.95001
19.052147 177.62523 789.90558 789.90558
-49.011795 116.71661 764.45239 764.45239
11.002266 160.56102 771.18811 771.18811
-76.798279 141.77127 801.44916 801.44916
63.317841 150.21878 791.10242 791.10242
-68.96656 119.97155 780.39575 780.39575
-89.387497 129.48624 816.22961 816.22961
-7.0430145 117.33307 751.76581 751.76581
6.2939529 157.54845 768.4613 768.4613
53.925659 166.92665 798.88397 798.88397
-37.069668 51.262901 770.9397 770.9397
-66.782623 47.883392 796.85925 796.85925
6.1388245 21.107172 788.85889 788.85889
-61.972397 102.1773 771.54822 771.54822
-46.216976 97.490463 761.35638 761.35638
-33.810837 167.0555 783.9668 783.9668
-46.690674 149.13515 776.47644 776.47644
-77.25943 57.927048 802.45166 802.45166
-21.340446 105.18794 752.44147 752.44147
-12.605736 47.324451 765.93823 765.93823
-38.458313 188.19838 822.76025 822.76025
-76.307587 143.11 801.84735 801.84735
23.512604 49.7817 766.78174 766.78174
42.491058 78.777405 761.99939 761.99939
-62.412041 157.11499 796.68384 796.68384
94.300446 85.38028 820.10535 820.10535
8.2572784 103.27599 750.39539 750.39539
8.563652 60.919838 758.35175 758.35175
37.052887 129.18422 761.82196 761.82196
89.358856 65.393028 821.41064 821.41064
-35.158005 98.218552 756.40118 756.40118
31.910736 140.67973 764.40289 764.40289
-31.181129 131.92688 760.51025 760.51025
66.813385 148.75676 793.79724 793.79724
-37.131458 105.36906 757.30463 757.30463
83.698914 133.84985 807.00372 807.00372
7.4832458 189.23526 805.49078 805.49078
7.1956024 36.357365 773.20264 773.20264
8.5820923 131.79126 755.57721 755.57721
72.06572 138.7104 792.48444 792.48444
38.039215 188.50273 823.16187 823.16187
-45.309032 164.37103 788.32776 788.32776
4.8911133 12.853284 801.1991 801.1991
8.3933334 60.422195 758.54974 758.54974
-1.6956177 85.798416 751.02808 751.02808
-71.054077 81.490364 782.11249 782.11249
-21.752419 187.74109 807.24097 807.24097
66.139526 99.888588 774.99634 774.99634
7.7563858 194.34746 817.77582 817.77582
-85.999115 149.28363 836.7608 836.7608
14.084183 151.96147 765.72876 765.72876
-56.558056 69.809792 773.25537 773.25537
-37.397808 71.842262 761.63403 761.63403
33.842712 124.49368 759.14447 759.14447
-42.466576 173.94649 797.76489 797.76489
64.055115 154.47343 795.87433 795.87433
-36.6553 138.91753 765.49072 765.49072
-25.442543 107.03314 753.54688 753.54688
43.771362 174.2944 799.35999 799.35999
-49.287384 165.63324 792.87708 792.87708
78.54155 92.967644 788.50391 788.50391
5.3879013 149.20393 763.10962 763.10962
-41.907383 76.261223 762.36304 762.36304
14.502922 77.224121 753.71436 753.71436
-49.676079 117.31847 764.95673 764.95673
-47.4828 70.616272 767.0423 767.0423
50.962891 181.77254 823.24115 823.24115
-81.489334 143.43419 811.62085 811.62085
-51.340412 48.022003 781.7179 781.7179
-94.936096 124.99421 830.96246 830.96246
33.332382 60.783875 764.26172 764.26172
-23.429039 14.756155 803.26062 803.26062
-18.134178 164.90944 776.12231 776.12231
64.00354 124.48415 777.1709 777.1709
-43.453026 174.2905 799.08087 799.08087
-76.357742 60.831917 798.66431 798.66431
-20.62674 173.59865 785.51917 785.51917
-2.9025726 106.24059 750.23712 750.23712
69.118073 85.769333 779.14679 779.14679
-32.673347 68.243599 760.98322 760.98322
-77.873535 141.4574 802.91504 802.91504
-55.49234 65.232384 774.42346 774.42346
79.873184 150.93723 817.97388 817.97388
-49.147266 49.210747 779.25397 779.25397
-41.862343 63.284855 766.93652 766.93652
-67.049316 133.48477 783.79456 783.79456
-22.21273 149.46931 765.97986 765.97986
34.3013 136.99829 763.66028 763.66028
-14.289307 102.7123 751.06335 751.06335
-8.744278 130.38606 755.13049 755.13049
22.027946 141.526 761.737 761.737
-31.651176 97.930115 755.1637 755.1637
61.832031 55.240982 785.39789 785.39789
69.177963 53.876812 794.43866 794.43866
17.770729 51.775024 764.21802 764.21802
81.078598 62.380249 805.15564 805.15564
25.344406 33.219109 780.01447 780.01447
97.304016 114.81652 832.3252 832.3252
-29.709023 192.19815 825.16302 825.16302
22.638031 54.147888 764.06335 764.06335
-51.992405 92.204063 764.93524 764.93524
29.529984 71.059151 758.9483 758.9483
-69.444016 130.35736 784.76227 784.76227
13.5196 139.16437 758.98694 758.98694
-84.534706 64.643867 809.95221 809.95221
26.37056 87.570602 754.34381 754.34381
58.4384 82.856056 770.68396 770.68396
61.223251 137.94539 780.63245 780.63245
-62.214825 83.479553 773.47296 773.47296
71.015579 46.129948 804.67004 804.67004
-42.030643 80.65255 761.34845 761.34845
18.49781 124.42123 754.80841 754.80841
-10.262695 75.757301 753.52734 753.52734
-44.713066 75.555267 763.95819 763.95819
8.7121811 59.557693 758.95868 758.95868
48.360046 155.38292 782.22064 782.22064
-18.9515 43.07317 769.9989 769.9989
54.043991 25.790197 810.34961 810.34961
11.997879 70.196686 755.30145 755.30145
2.6346359 180.71916 791.02991 791.02991
6.1257019 100.25259 750.18811 750.18811
-24.217339 147.35953 765.32062 765.32062
83.173996 51.968552 822.15997 822.15997
-46.769203 146.94832 775.11011 775.11011
53.746719 149.23346 781.53571 781.53571
-11.015663 30.634087 778.81696 778.81696
98.088211 98.663155 830.58569 830.58569
-1.3536987 113.59335 750.93744 750.93744
-4.3998718 8.8982143 808.99872 808.99872
-3.3755875 39.510178 770.44128 770.44128
57.752518 110.21687 769.00458 769.00458
-31.612282 74.953255 758.49414 758.49414
-13.50251 114.62769 752.00146 752.00146
54.615768 88.387512 767.04059 767.04059
-0.78089905 102.29478 750.02936 750.02936
53.766785 67.532745 772.18604 772.18604
-22.660866 7.5450716 819.36389 819.36389
-27.627129 151.77858 769.03259 769.03259
0.23449707 122.95908 752.67157 752.67157
54.539444 166.38786 798.83264 798.83264
-36.271358 99.001579 756.81531 756.81531
11.48217 92.505173 750.94452 750.94452
-70.39624 40.902248 810.60681 810.60681
-21.658127 149.61911 765.92346 765.92346
72.84346 119.31279 784.26685 784.26685
14.279198 60.652073 759.18237 759.18237
53.72644 54.567253 778.94135 778.94135
23.044846 98.192558 752.70831 752.70831
-0.72065735 69.04245 754.91522 754.91522
-24.424522 72.782059 756.92676 756.92676
22.612915 9.7284155 813.39813 813.39813
49.022415 175.92172 807.19 807.19
-85.223816 94.607765 797.96326 797.96326
-29.431694 186.32491 808.99042 808.99042
57.548615 95.21199 768.35913 768.35913
87.68428 56.651966 829.20538 829.20538
49.595871 107.40546 763.48175 763.48175
40.589172 142.21417 768.94147 768.94147
-14.588135 64.340195 757.72021 757.72021
-70.471939 107.36494 779.43469 779.43469
-51.539837 85.500862 765.54041 765.54041
-54.7626 50.951355 782.21143 782.21143
-41.751366 135.16827 766.21448 766.21448
2.3177948 86.744652 750.90955 750.90955
-15.323257 45.911533 767.29791 767.29791
72.426254 137.26086 791.98218 791.98218
26.854233 64.629623 760.4021 760.4021
11.976265 29.527845 780.0697 780.0697
44.50145 158.14355 781.8902 781.8902
23.224129 120.75684 754.97479 754.97479
-41.032303 108.63739 759.21594 759.21594
73.120697 61.589737 793.6261 793.6261
-67.86319 94.355194 776.76941 776.76941
-37.839527 78.406105 759.98956 759.98956
-15.001976 134.22845 757.24573 757.24573
-59.755562 28.225681 814.25482 814.25482
-59.060421 61.147457 779.27271 779.27271
-1.8662872 142.06184 759.29541 759.29541
46.3965 17.140993 818.66711 818.66711
-16.275986 138.57037 759.18469 759.18469
39.58017 131.46716 763.72583 763.72583
-31.040924 42.020847 774.66821 774.66821
55.111176 49.583176 783.51013 783.51013
-36.841179 178.89536 800.82428 800.82428
-81.596329 125.53497 798.13477 798.13477
12.308037 119.73171 752.7417 752.7417
94.999847 124.27016 830.35339 830.35339
-64.029449 59.787769 784.55377 784.55377
-24.74704 176.83148 790.97028 790.97028
32.984756 157.08969 774.81506 774.81506
9.0370407 100.20358 750.40936 750.40936
-33.268547 57.595421 765.76782 765.76782
8.2119141 98.64875 750.34692 750.34692
23.376167 108.32041 753.12726 753.12726
-69.8937 118.5397 780.92651 780.92651
26.004601 119.35645 755.40039 755.40039
83.651779 104.5328 795.39386 795.39386
60.753326 162.41008 800.86737 800.86737
-49.910141 61.947018 772.14789 772.14789
-63.379414 39.574421 801.7113 801.7113
51.506409 42.653221 786.29413 786.29413
39.348114 8.6920538 839.29559 839.29559
22.990623 37.618099 775.30109 775.30109
-43.916958 165.95248 788.9953 788.9953
62.939636 22.317507 847.99194 847.99194
17.42247 83.243904 752.96552 752.96552
14.027443 9.0265026 810.92249 810.92249
-26.57975 135.93503 760.54504 760.54504
-30.894562 131.46332 760.24707 760.24707
15.02359 22.435923 788.69659 788.69659
-55.927361 47.951759 785.47784 785.47784
68.014008 78.529617 779.90637 779.90637
-47.382336 31.604549 794.52948 794.52948
-10.683449 160.46489 771.07056 771.07056
-76.170166 109.30097 785.87823 785.87823
-90.740791 135.17735 827.00732 827.00732
-50.827747 60.447075 773.50092 773.50092
-15.205116 95.11869 751.28333 751.28333
35.023636 38.35989 779.47455 779.47455
-11.602142 36.793785 773.38171 773.38171
-46.618427 176.71698 805.94067 805.94067
72.455139 145.52788 798.2558 798.2558
70.918625 35.784611 820.89789 820.89789
-51.47126 37.416412 791.3996 791.3996
-21.973328 4.7205076 829.04791 829.04791
-47.907936 21.701292 810.32452 810.32452
77.073181 46.513878 815.37402 815.37402
-23.480453 28.453339 784.19922 784.19922
-42.473667 138.66525 768.14044 768.14044
25.374626 91.364311 753.65918 753.65918
42.050964 37.786129 783.961 783.961
15.762413 57.586639 760.82233 760.82233
13.42865 79.664352 753.01477 753.01477
43.657974 26.279446 798.43195 798.43195
-61.09869 35.90118 803.5426 803.5426
-78.997269 108.47333 789.27411 789.27411
47.791367 77.983002 764.96332 764.96332
-34.02404 116.99438 757.51459 757.51459
17.02739 11.395832 806.87958 806.87958
8.7006531 194.79829 819.38007 819.38007
-68.943611 109.14915 778.14551 778.14551
36.803131 152.73932 773.42261 773.42261
58.768311 74.993652 773.05219 773.05219
15.728226 109.9883 751.75104 751.75104
-11.580177 149.21738 763.724 763.724
55.517349 85.421906 768.11407 768.11407
-19.467522 154.07372 768.16449 768.16449
11.894699 32.794895 776.91107 776.91107
12.606705 7.1804323 814.99146 814.99146
-87.595192 55.047955 832.49579 832.49579
43.479782 64.214531 767.36279 767.36279
69.655685 103.17265 778.32001 778.32001
61.460785 161.27681 800.32379 800.32379
-48.70681 21.327204 812.07593 812.07593
33.783615 144.63449 767.13611 767.13611
-19.045494 105.24313 751.97052 751.97052
21.763138 149.04985 765.61707 765.61707
-66.562332 35.220039 812.9458 812.9458
40.539581 191.26923 844.85504 844.85504
-3.0233765 4.8183498 819.48254 819.48254
68.662704 43.615303 804.10663 804.10663
5.6149368 123.9353 753.06921 753.06921
-11.19751 83.93042 751.93683 751.93683
-0.0017547607 43.530853 767.46979 767.46979
-19.634468 148.24904 764.63892 764.63892
39.033157 183.81721 811.90686 811.90686
3.4284973 162.28745 771.84296 771.84296
16.524994 108.84531 751.77228 751.77228
-41.376339 30.774208 790.87482 790.87482
53.821487 79.898056 768.15161 768.15161
10.197975 7.2043328 814.15356 814.15356
-90.919395 94.215073 808.76654 808.76654
45.020386 88.392487 761.46509 761.46509
-1.8267365 139.43582 758.1225 758.1225
11.999908 51.302422 763.48669 763.48669
64.024719 25.235561 832.36157 832.36157
19.924774 121.08568 754.30048 754.30048
1.3761902 130.22456 754.68695 754.68695
-60.671841 43.921288 793.66083 793.66083
-87.894531 57.13855 829.08478 829.08478
-88.640152 122.65417 809.63031 809.63031
11.64032 98.612732 750.68945 750.68945
-12.826279 114.28597 751.86029 751.86029
-69.109482 38.371052 812.24084 812.24084
63.694778 176.43452 839.96313 839.96313
54.349762 165.35255 797.32031 797.32031
-36.209827 100.60419 756.78796 756.78796
40.548569 145.31691 770.61365 770.61365
-0.061820984 137.15852 757.16016 757.16016
-25.144249 50.103535 767.06561 767.06561
-31.528305 97.980644 755.1217 755.1217
-13.169769 166.78728 776.74689 776.74689
27.605072 100.47552 753.88684 753.88684
-50.194122 112.38654 764.40137 764.40137
-86.088554 122.91955 804.57471 804.57471
-41.050201 88.741829 759.51172 759.51172
29.976624 39.403885 776.31476 776.31476
-19.700615 67.463776 757.51605 757.51605
39.263794 13.429186 818.9541 818.9541
-46.599316 142.66934 772.48981 772.48981
-68.977554 57.585854 791.32178 791.32178
-22.325233 141.48677 761.79321 761.79321
-79.204506 97.217438 789.01721 789.01721
23.044357 24.398638 788.73505 788.73505
66.805038 76.768845 779.30774 779.30774
45.604172 162.98466 787.12561 787.12561
-7.6364365 152.64516 765.32312 765.32312
1.6633606 88.359802 750.69373 750.69373
-96.789246 85.366127 829.5625 829.5625
-63.909641 152.54659 793.83582 793.83582
-32.312889 87.692177 756.16827 756.16827
62.195938 91.835648 772.12183 772.12183
87.774414 105.96751 802.46008 802.46008
33.364761 92.49781 756.02917 756.02917
8.0040665 1.8702073 832.49347 832.49347
-74.967453 87.958946 784.92395 784.92395
-7.0816498 149.10791 763.17682 763.17682
24.581955 86.300751 754.04138 754.04138
-49.888496 141.95818 774.16699 774.16699
-41.052292 88.814728 759.5036 759.5036
-51.445469 173.00047 805.00781 805.00781
63.353241 170.49057 818.10254 818.10254
-52.94495 71.704552 770.02374 770.02374
-72.163116 44.922382 808.06024 808.06024
75.701096 95.640564 784.80536 784.80536
-91.87159 114.06358 813.09705 813.09705
33.652908 36.738182 780.24744 780.24744
87.424927 86.619698 803.33258 803.33258
30.284302 12.257062 812.79736 812.79736
5.2801971 65.568558 756.26318 756.26318
-65.556152 112.46718 775.52209 775.52209
-6.1378708 174.53513 783.61597 783.61597
8.1209412 68.227539 755.53009 755.53009
-15.90477 4.549171 824.77747 824.77747
-31.217995 110.02013 755.52759 755.52759
-53.421082 16.205809 838.83209 838.83209
69.538605 35.948849 817.41425 817.41425
-26.044823 37.738113 776.20892 776.20892
-11.279678 179.85918 790.87909 790.87909
60.498993 128.70984 775.73279 775.73279
-29.538383 182.54575 801.89923 801.89923
-74.647842 36.097588 831.44788 831.44788
28.565277 32.968735 781.51031 781.51031
-67.5952 68.64669 783.30774 783.30774
11.457588 152.0121 765.36273 765.36273
-15.858421 17.361633 795.96844 795.96844
64.621475 151.07545 793.29584 793.29584
-75.163033 74.515671 789.16357 789.16357
67.74823 167.12283 819.92169 819.92169
53.272964 166.45026 797.5943 797.5943
5.0336685 11.533557 803.64972 803.64972
-20.005775 152.79881 767.46484 767.46484
-6.794754 75.990715 753.16309 753.16309
-33.640854 61.470234 764.07123 764.07123
-55.287521 123.46107 770.04456 770.04456
19.904366 60.355331 760.37793 760.37793
78.854828 123.71118 793.25763 793.25763
-38.076927 163.58286 782.86304 782.86304
37.516251 115.26756 758.57007 758.57007
19.29718 192.93724 818.53113 818.53113
79.774933 96.23819 789.81854 789.81854
-67.533585 83.108818 778.20929 778.20929
90.957474 60.454033 837.23853 837.23853
-66.471558 161.08937 806.9928 806.9928
81.337112 73.651978 798.13428 798.13428
14.854111 18.661016 793.75653 793.75653
16.044167 49.54607 765.16498 765.16498
9.085968 31.701084 777.52448 777.52448
34.795242 22.59021 797.11316 797.11316
44.48468 170.92908 795.31744 795.31744
56.066711 106.24187 767.43146 767.43146
37.027435 166.9444 785.59955 785.59955
35.384552 53.51984 768.83643 768.83643
49.788361 77.487762 766.24847 766.24847
44.101654 162.22285 785.32111 785.32111
11.598206 154.95427 767.26239 767.26239
-39.893501 106.50898 758.53339 758.53339
-1.9907227 127.78398 753.95789 753.95789
-6.9679108 152.58231 765.2265 765.2265
30.730377 138.8744 763.14136 763.14136
57.757217 72.851578 773.01257 773.01257
-6.3630676 159.81573 770.11517 770.11517
43.228256 146.73323 772.8811 772.8811
-57.778294 28.31546 810.97443 810.97443
13.045441 69.894478 755.53589 755.53589
-48.450493 104.26767 762.62531 762.62531
2.863121 146.56346 761.54865 761.54865
62.501205 144.11848 785.60156 785.60156
-81.619949 118.49107 795.26184 795.26184
48.517715 153.22903 780.62634 780.62634
-47.240139 142.05891 772.54407 772.54407
66.591949 174.4408 845.09283 845.09283
62.09259 79.768143 774.26904 774.26904
-33.460312 176.05109 794.35254 794.35254
-35.267487 84.126831 757.78149 757.78149
-42.779625 175.26164 799.94415 799.94415
22.529854 9.9501715 812.80548 812.80548
56.894775 154.74632 788.63367 788.63367
-20.53569 135.63036 758.8476 758.8476
3.6824722 22.932646 786.38348 786.38348
-9.6956558 75.805023 753.45679 753.45679
-65.413589 116.78178 776.2475 776.2475
44.815857 160.65778 784.33289 784.33289
-69.853088 116.93105 780.47388 780.47388
28.393143 88.109802 754.85559 754.85559
43.414215 69.200882 765.34412 765.34412
79.561615 97.53125 789.47021 789.47021
40.173584 119.52621 760.5304 760.5304
96.374924 78.990517 833.55383 833.55383
-69.749596 132.33325 786.05035 786.05035
14.355827 152.49466 766.1059 766.1059
-86.667892 108.39889 800.82544 800.82544
6.4672012 177.72798 787.41779 787.41779
-8.156517 16.997478 794.82709 794.82709
-12.86441 47.223614 766.04071 766.04071
81.378769 135.20929 803.76361 803.76361
73.535233 105.7487 782.47577 782.47577
18.219223 30.539871 780.40582 780.40582
-91.409431 116.41908 812.92267 812.92267
-42.617661 41.453094 781.03625 781.03625
71.601669 68.134842 787.88873 787.88873
37.032349 48.383015 772.77118 772.77118
-54.781296 74.924644 770.18622 770.18622
59.404449 26.189175 818.01447 818.01447
-25.380638 78.966667 755.58911 755.58911
-17.865211 162.75496 774.21973 774.21973
23.35508 159.82388 773.34723 773.34723
-1.085144 60.439213 758.16443 758.16443
46.614807 88.083641 762.33551 762.33551
-20.58963 48.924038 766.52954 766.52954
-61.881001 127.73808 776.50616 776.50616
66.884827 63.649632 785.1535 785.1535
-33.953949 124.25105 759.12085 759.12085
-28.882027 142.87595 764.39929 764.39929
17.421051 167.7189 778.51111 778.51111
55.467117 96.879105 766.85156 766.85156
49.074951 123.81022 766.1864 766.1864
50.895996 128.53311 768.7876 768.7876
24.404297 100.78949 753.02679 753.02679
89.71817 68.151291 819.40082 819.40082
-48.958588 101.75304 762.82214 762.82214
-24.167023 133.99681 759.1145 759.1145
70.23349 74.409447 783.57422 783.57422
-72.161125 108.13065 781.24927 781.24927
-21.541939 180.32381 794.46594 794.46594
0.37032318 168.3434 776.99969 776.99969
-91.880272 90.351532 811.72571 811.72571
-70.667755 66.920242 787.45563 787.45563
-16.751289 134.65317 757.70398 757.70398
-29.166824 45.16045 771.62958 771.62958
5.9042664 43.804535 767.4942 767.4942
4.6642151 66.23587 755.98816 755.98816
-10.143517 172.35307 781.72009 781.72009
53.134949 168.47574 800.12262 800.12262
91.698807 105.24197 810.45447 810.45447
-49.354935 178.94569 813.508 813.508
-20.952171 128.94814 756.60291 756.60291
-32.320724 141.22823 764.82019 764.82019
81.63179 85.489433 794.0921 794.0921
-52.061378 41.965042 787.37769 787.37769
-90.622498 97.358986 807.80298 807.80298
-31.198212 22.904284 794.47595 794.47595
42.67485 46.657101 776.96991 776.96991
12.688103 134.17708 756.88214 756.88214
20.302704 19.058575 794.89746 794.89746
-5.1614914 66.629128 755.87378 755.87378
46.410187 186.96774 833.18616 833.18616
24.000397 141.80443 762.38513 762.38513
-59.419662 146.73691 784.54034 784.54034
41.707672 166.94769 788.5307 788.5307
-66.98806 158.3313 804.06464 804.06464
-9.1830978 6.0726013 816.93469 816.93469
-10.817543 51.984058 762.95142 762.95142
58.481415 109.58042 769.45099 769.45099
24.543068 86.941887 753.94208 753.94208
-2.1822891 16.267626 795.37286 795.37286
25.179382 15.285254 803.20886 803.20886
83.8405 73.552116 802.34204 802.34204
53.502472 90.347763 766.06958 766.06958
56.642166 62.424904 776.65302 776.65302
-37.935226 159.39766 779.0575 779.0575
14.608154 152.46249 766.12933 766.12933
-4.2838211 56.438328 760.08875 760.08875
-57.655823 143.26495 780.68945 780.68945
-45.907421 79.557495 763.54419 763.54419
-89.615509 113.9709 807.88263 807.88263
24.311447 178.68695 793.27863 793.27863
-45.604897 178.11328 807.35602 807.35602
-32.942635 73.321594 759.42932 759.42932
73.273056 57.852268 796.57129 796.57129
-91.38369 121.08311 815.29376 815.29376
61.775101 93.017593 771.67322 771.67322
7.9849854 148.6767 763.01251 763.01251
97.803452 91.287376 831.0639 831.0639
-82.766159 153.82851 834.11749 834.11749
31.136993 26.479834 789.78973 789.78973
-68.140869 70.373955 783.07379 783.07379
78.13298 112.54872 788.86273 788.86273
81.153458 137.11015 804.86737 804.86737
47.555557 99.931412 762.03143 762.03143
2.6542892 69.671288 754.74707 754.74707
72.341095 74.648689 785.78101 785.78101
69.790909 149.31696 798.06671 798.06671
52.383148 51.534225 779.94946 779.94946
63.39183 57.82259 785.17297 785.17297
71.431381 101.51437 780.03381 780.03381
-11.494133 37.503971 772.78516 772.78516
81.732758 130.94756 801.39954 801.39954
-47.196747 32.693954 793.05823 793.05823
12.022591 12.912742 802.34216 802.34216
62.256439 61.704548 781.75342 781.75342
15.490761 178.21729 789.65027 789.65027
-44.942451 89.965141 761.23358 761.23358
-31.326302 147.20015 767.59363 767.59363
-86.022766 96.710091 799.11523 799.11523
64.06044 143.31551 786.59631 786.59631
4.1504822 145.97769 761.29358 761.29358
-92.358643 120.26234 817.45282 817.45282
-19.562668 141.97458 761.36908 761.36908
-84.76754 67.14344 808.34772 808.34772
30.001022 128.16852 758.86017 758.86017
1.9085312 101.98529 750.0379 750.0379
-54.737122 79.264305 768.92053 768.92053
-11.963097 61.122459 758.64673 758.64673
-31.733673 161.52873 777.83911 777.83911
-17.317818 33.644421 777.2193 777.2193
43.149765 80.017776 762.02948 762.02948
-20.99778 104.86321 752.3504 752.3504
-43.5322 92.270676 760.30493 760.30493
32.485062 161.53392 778.17871 778.17871
-25.925568 94.857712 753.55615 753.55615
-89.35672 89.201485 806.42517 806.42517
2.6789932 54.651154 760.91406 760.91406
-0.66786957 81.746208 751.68237 751.68237
-55.472813 98.757233 766.80609 766.80609
-88.056404 132.17035 815.19861 815.19861
42.442749 184.93259 818.6142 818.6142
13.423141 99.69455 750.90546 750.90546
-21.459969 20.454254 793.32599 793.32599
-69.544342 143.88095 793.09619 793.09619
-45.29417 55.46114 772.76837 772.76837
9.9808121 166.99983 776.43774 776.43774
51.759842 145.26166 777.3894 777.3894
-32.322784 66.163216 761.62402 761.62402
-70.140526 30.018944 836.47375 836.47375
-26.386032 120.32047 755.70868 755.70868
-89.889236 95.249458 806.44135 806.44135
49.892136 29.112631 800.14264 800.14264
-18.181 133.84984 757.67645 757.67645
-86.831993 61.059727 819.27771 819.27771
33.320267 82.220253 757.40607 757.40607
-0.97984314 186.7506 800.26697 800.26697
78.872253 82.043159 791.20612 791.20612
-89.135223 86.515144 806.72101 806.72101
-58.61013 31.886789 806.12012 806.12012
7.1817551 73.757568 753.77234 753.77234
24.763931 160.52364 774.34528 774.34528
39.27446 190.3905 833.05676 833.05676
37.941635 36.139244 783.05048 783.05048
58.557266 102.91004 768.99023 768.99023
80.193375 48.806988 819.20557 819.20557
-22.628517 61.773594 760.4082 760.4082
-22.927589 18.723471 796.44208 796.44208
-46.598427 12.490369 836.93665 836.93665
3.2562943 43.756054 767.38031 767.38031
30.366196 148.43007 767.94867 767.94867
24.433388 38.427876 775.08752 775.08752
-12.21315 92.333984 751.0451 751.0451
-70.01368 38.301838 814.06366 814.06366
-50.145756 122.96009 766.58398 766.58398
52.470291 179.87682 820.56256 820.56256
44.958542 141.47266 770.88776 770.88776
-77.57193 132.20284 795.72687 795.72687
-50.869045 98.405258 763.9198 763.9198
53.770905 131.04588 771.61096 771.61096
-27.947334 27.173937 787.42755 787.42755
69.610458 151.18672 799.65814 799.65814
-75.425659 89.803856 785.13855 785.13855
7.4181061 115.33862 751.46222 751.46222
-10.127235 22.982567 787.02576 787.02576
-16.102539 178.4897 790.16626 790.16626
59.502533 31.232706 808.40063 808.40063
12.532043 92.35865 751.08307 751.08307
18.973717 7.1254096 818.15179 818.15179
-4.2124023 131.44835 755.16724 755.16724
12.51458 131.31638 755.85828 755.85828
-55.05468 35.632584 796.84155 796.84155
-54.424408 130.94022 772.02124 772.02124
-44.287182 47.423767 777.37506 777.37506
-24.726776 119.44621 755.07672 755.07672
-48.598225 153.08618 780.57324 780.57324
62.086884 171.37154 817.57587 817.57587
21.775558 159.54164 772.66553 772.66553
65.668686 74.716988 778.94794 778.94794
41.635925 98.074707 759.10034 759.10034
-26.706154 40.411427 774.26373 774.26373
74.68486 149.11549 805.16876 805.16876
83.818436 48.722054 831.42468 831.42468
-31.830231 41.972473 775.03571 775.03571
31.533096 159.57904 776.13525 776.13525
-49.657928 174.98911 806.28815 806.28815
54.665878 157.76123 789.37592 789.37592
50.294815 150.34373 779.74377 779.74377
64.078003 42.84306 798.74481 798.74481
36.61618 87.845032 757.74213 757.74213
78.778717 122.62083 792.70941 792.70941
48.908203 125.10661 766.46771 766.46771
-51.605343 33.299911 796.26001 796.26001
-6.2885437 186.24493 799.77783 799.77783
-68.172844 101.716 776.85962 776.85962
40.297745 163.99828 784.57593 784.57593
0.047210693 111.58367 750.67322 750.67322
-14.493019 63.067806 758.20691 758.20691
-69.766853 99.557327 778.35931 778.35931
16.888466 76.56456 754.26306 754.26306
-36.125439 131.08658 762.08765 762.08765
26.592651 6.6554918 825.92438 825.92438
-39.852875 33.073978 787.28912 787.28912
-4.3412933 40.772148 769.5437 769.5437
-45.841904 162.92554 787.23938 787.23938
-48.829521 72.659164 767.12567 767.12567
62.801498 65.077934 780.45563 780.45563
55.506165 20.99515 823.97504 823.97504
-11.325912 47.73138 765.50317 765.50317
-19.275749 155.8197 769.29926 769.29926
-17.444496 120.06071 753.59845 753.59845
-22.12915 7.2712951 819.80585 819.80585
-65.676514 73.417267 779.43121 779.43121
-35.955017 92.1334 757.01959 757.01959
42.505051 124.24835 762.79138 762.79138
89.322205 92.837616 805.61255 805.61255
-45.809944 104.85831 761.2428 761.2428
15.885292 130.51691 756.10443 756.10443
-0.35489655 140.03645 758.36511 758.36511
-31.190048 28.164942 787.81555 787.81555
28.629608 89.275398 754.78796 754.78796
44.15535 113.19182 761.25159 761.25159
29.371124 163.34378 778.41156 778.41156
24.393906 44.643265 770.37231 770.37231
62.631027 166.04178 808.57733 808.57733
66.654373 106.97744 775.78064 775.78064
85.272171 128.25562 806.06506 806.06506
-7.4163055 143.34605 760.18842 760.18842
-89.949844 127.82053 816.30957 816.30957
59.698776 119.98907 772.30511 772.30511
-87.252296 53.719173 834.34363 834.34363
-8.8439255 33.131279 776.17346 776.17346
-6.2600021 63.910557 756.94965 756.94965
-11.37236 46.405937 766.34387 766.34387
17.726639 168.92445 779.74915 779.74915
4.1231995 84.013329 751.37231 751.37231
2.5458679 61.068924 757.92456 757.92456
-65.297852 56.573601 787.94891 787.94891
73.236435 110.86065 782.7804 782.7804
17.658142 103.24696 751.62494 751.62494
-68.633064 67.67231 784.85077 784.85077
-65.441338 118.48302 776.68011 776.68011
-11.851463 147.5127 762.81006 762.81006
-39.075363 137.30502 765.84863 765.84863
-19.439659 116.77717 753.35309 753.35309
17.903343 44.451424 768.79761 768.79761
-42.210472 145.95744 771.85791 771.85791
12.37719 125.09071 753.99341 753.99341
-45.073586 70.351212 765.80188 765.80188
47.180161 22.973244 807.09418 807.09418
40.021484 141.18271 768.13263 768.13263
26.122078 164.24481 777.95667 777.95667
53.6987 167.99055 800.06268 800.06268
-48.652 131.68823 768.58234 768.58234
-31.76342 131.96219 760.72791 760.72791
78.525299 53.917301 808.64587 808.64587
51.386566 40.052902 788.63416 788.63416
84.875809 48.070404 840.02936 840.02936
-37.23735 63.70039 764.58502 764.58502
73.194885 35.874039 826.97021 826.97021
50.77005 109.00967 764.31903 764.31903
46.917007 19.282299 814.17474 814.17474
23.722366 67.159691 758.57373 758.57373
68.391556 93.366577 777.34607 777.34607
-1.0507736 33.662952 775.17828 775.17828
25.615776 101.92922 753.35577 753.35577
-50.8092 22.305683 812.82452 812.82452
18.7659 27.33857 783.90796 783.90796
38.357422 23.843008 797.7619 797.7619
84.200699 74.002991 802.73059 802.73059
18.688133 184.47437 799.85187 799.85187
-91.493454 121.85504 816.06909 816.06909
70.985062 120.91238 782.74084 782.74084
20.48848 70.409081 756.70154 756.70154
23.443047 45.121925 769.75775 769.75775
72.227234 75.435692 785.34845 785.34845
14.035271 174.85059 785.18951 785.18951
-92.617035 119.23201 817.56213 817.56213
-88.307724 125.68526 810.73151 810.73151
25.846062 115.91312 754.71753 754.71753
38.729401 189.58823 828.22882 828.22882
-91.580704 110.21484 811.15887 811.15887
47.187439 120.13241 764.16278 764.16278
-31.183098 37.073227 778.81128 778.81128
5.1162491 173.1714 782.03113 782.03113
43.504578 122.26189 762.75458 762.75458
-65.176376 92.438614 774.53564 774.53564
57.762436 79.192039 771.06628 771.06628
-54.472984 163.35115 795.05164 795.05164
-13.498047 85.127899 752.03766 752.03766
7.7673187 15.144356 797.66272 797.66272
-88.686142 96.829063 803.9054 803.9054
63.167862 24.075296 834.33923 834.33923
25.614334 173.13687 786.79474 786.79474
-35.894386 37.372078 780.79498 780.79498
54.987518 31.703524 801.91711 801.91711
-29.989471 154.0618 771.40002 771.40002
-52.546135 144.26254 777.33826 777.33826
-55.055439 170.09221 804.6571 804.6571
69.940002 121.52946 781.84668 781.84668
74.35759 55.003994 800.53986 800.53986
-44.473724 44.524498 779.68243 779.68243
24.650574 109.997 753.60284 753.60284
-30.209305 187.09973 811.25684 811.25684
27.434303 64.788391 760.51538 760.51538
-27.544533 36.983501 777.40375 777.40375
28.056351 89.374161 754.60645 754.60645
82.498901 129.95146 802.07465 802.07465
93.107803 81.616821 818.48816 818.48816
91.805923 77.224152 817.55109 817.55109
46.260513 115.81448 762.76544 762.76544
6.6803436 46.457211 765.80652 765.80652
43.127121 58.284801 770.00067 770.00067
-4.3940277 141.6824 759.20752 759.20752
-75.48996 58.674686 799.07373 799.07373
41.640488 127.25962 763.26489 763.26489
29.159912 30.783197 783.97931 783.97931
20.935104 36.782459 775.39929 775.39929
91.671021 127.66817 821.17474 821.17474
37.196381 17.006941 808.42377 808.42377
-46.504074 121.03479 764.00635 764.00635
-76.345116 48.825272 810.59735 810.59735
-27.659775 38.867188 775.85339 775.85339
-15.538368 11.59785 805.91351 805.91351
20.972252 164.51956 776.53308 776.53308
-27.24823 12.359076 810.29352 810.29352
-83.072495 123.45007 799.51184 799.51184
26.254807 107.86483 753.82916 753.82916
18.580795 178.74019 791.22302 791.22302
89.981094 127.33749 815.99902 815.99902
-40.588879 135.4245 765.75244 765.75244
48.867447 137.54672 771.24585 771.24585
-34.388092 129.98764 761.01575 761.01575
9.0856552 107.21979 750.67566 750.67566
39.691681 97.679649 758.2439 758.2439
46.22702 108.58015 761.74219 761.74219
-25.01368 138.8446 761.31287 761.31287
-69.246841 81.329239 780.31299 780.31299
-48.973072 19.604557 816.26263 816.26263
37.669159 169.85068 789.15662 789.15662
-33.973984 137.58585 763.78473 763.78473
20.109917 166.08496 777.6925 777.6925
75.91806 131.20503 792.88 792.88
44.701599 109.05893 761.00726 761.00726
25.437012 60.521156 761.71423 761.71423
24.998688 115.62104 754.44348 754.44348
76.328735 56.126381 802.57605 802.57605
82.352371 47.028683 829.6991 829.6991
73.052917 92.769157 782.09576 782.09576
-41.507851 50.867939 773.42883 773.42883
-0.76776123 189.86061 806.1311 806.1311
-39.535915 163.49568 783.62823 783.62823
-13.082176 122.55618 753.45947 753.45947
-9.0054932 135.93942 757.11694 757.11694
11.60936 31.996145 777.6073 777.6073
15.871582 106.61167 751.4892 751.4892
-35.312065 147.57639 769.44226 769.44226
-48.665268 48.447777 779.47296 779.47296
60.552185 166.00011 805.5318 805.5318
-18.090805 117.79984 753.27417 753.27417
41.119843 156.14981 778.1922 778.1922
72.490601 119.59131 783.9599 783.9599
76.931931 149.55528 809.67938 809.67938
-83.193085 131.72733 804.4776 804.4776
-64.772659 82.802849 775.77899 775.77899
-46.223198 58.779217 771.48718 771.48718
-93.036758 131.31006 830.92535 830.92535
33.738281 31.166151 785.78448 785.78448
-0.4576416 95.065918 750.12286 750.12286
-40.811684 59.728165 768.06964 768.06964
47.577637 52.282482 776.11218 776.11218
74.124985 72.674889 788.69073 788.69073
3.2654037 43.729282 767.39886 767.39886
42.964264 82.481873 761.41565 761.41565
-76.589096 93.588776 786.02338 786.02338
22.814163 115.85795 753.93732 753.93732
-74.627777 48.90588 807.33752 807.33752
-76.265762 97.431732 785.37079 785.37079
-75.579918 133.19635 793.55817 793.55817
-87.420509 102.67516 801.51807 801.51807
0.67755127 123.85754 752.88995 752.88995
-53.804485 20.3652 822.37073 822.37073
13.476959 120.80434 753.12097 753.12097
-73.120483 149.18668 802.73407 802.73407
0.59111023 183.22058 794.55646 794.55646
-74.65123 39.412056 822.49921 822.49921
-92.804222 115.14832 815.97198 815.97198
-35.823593 95.761681 756.73315 756.73315
47.946182 59.948341 771.9165 771.9165
52.881241 92.864243 765.42664 765.42664
38.797699 104.52387 757.94421 757.94421
