# .PCD v0.7 - Point Cloud Data file format
VERSION 0.7
FIELDS x y z intensity
SIZE 4 4 4 4
TYPE F F F F
COUNT 1 1 1 1
WIDTH 1207
HEIGHT 1
VIEWPOINT 0 0 0 1 0 0 0
POINTS 1207
DATA ascii
109.616 86.319496 701.40802 701.40802
138.8808 132.59644 713.82715 713.82715
70.304398 72.371689 708.59515 708.59515
91.622231 199.5414 795.38226 795.38226
4.3920069 114.26061 774.39246 774.39246
158.3632 155.47369 740.70068 740.70068
101.72956 141.87726 709.20734 709.20734
150.64029 172.31334 753.02826 753.02826
67.358521 92.033188 705.81366 705.81366
23.128839 89.457901 736.91522 736.91522
159.39969 54.218544 733.85065 733.85065
182.7146 134.36787 755.53491 755.53491
46.811943 21.415781 768.44763 768.44763
131.51765 106.06217 705.29053 705.29053
28.247499 128.44891 736.42139 736.42139
87.414345 2.9351716 779.50562 779.50562
89.211929 20.818216 739.88458 739.88458
88.04776 14.842489 748.95746 748.95746
163.43221 115.36375 724.23517 724.23517
135.37929 92.198051 706.79358 706.79358
182.3287 109.08921 743.96991 743.96991
109.04168 82.211182 702.01123 702.01123
99.152573 198.64465 783.61359 783.61359
88.341278 157.34131 718.90717 718.90717
113.95383 134.64783 707.23785 707.23785
119.55967 153.91502 718.08179 718.08179
48.564068 18.309221 773.90479 773.90479
80.393318 60.321472 710.32727 710.32727
95.130089 186.8723 750.71014 750.71014
196.42044 76.816315 787.13086 787.13086
107.83134 128.62801 704.50598 704.50598
8.6500397 115.42248 762.35254 762.35254
155.44556 38.730507 743.68091 743.68091
54.647533 62.341328 719.22266 719.22266
194.97881 69.401588 793.46063 793.46063
81.149902 15.546823 749.87683 749.87683
88.38195 74.797752 703.9278 703.9278
142.07095 44.334236 728.36652 728.36652
189.36183 55.380791 795.14319 795.14319
120.17524 160.46902 722.9516 722.9516
74.412308 194.524 779.73962 779.73962
127.01075 27.838329 736.25745 736.25745
51.024117 129.09799 717.81323 717.81323
31.685438 48.587376 748.13611 748.13611
160.31781 109.39417 720.79449 720.79449
84.625916 38.082001 722.99481 722.99481
147.98427 125.203 715.9624 715.9624
117.31371 92.905907 701.76605 701.76605
47.908253 76.256981 718.00781 718.00781
69.497513 194.70013 789.92609 789.92609
130.08813 171.77019 737.20074 737.20074
122.54765 172.2244 734.61469 734.61469
43.122059 158.46844 742.15247 742.15247
105.46875 26.660311 732.24023 732.24023
69.47966 79.632835 706.97479 706.97479
88.564087 113.28895 701.54889 701.54889
160.26952 35.004375 753.70581 753.70581
160.80522 42.903122 744.8396 744.8396
178.47833 97.905579 738.05835 738.05835
139.65765 26.60076 744.86542 744.86542
156.85089 21.948235 774.00195 774.00195
20.992701 103.12228 738.77832 738.77832
39.689354 96.743172 720.30042 720.30042
124.95833 54.626965 714.45251 714.45251
128.61057 101.54834 704.19269 704.19269
133.49358 55.396206 717.00189 717.00189
160.34 134.99722 728.34613 728.34613
12.33897 101.97275 751.92035 751.92035
121.78669 35.433369 726.81195 726.81195
30.259266 135.5672 737.78101 737.78101
51.21587 179.00781 762.88025 762.88025
181.81598 156.18391 787.7724 787.7724
91.462112 84.418098 701.59113 701.59113
119.69587 152.03349 716.90613 716.90613
98.798439 15.884778 745.93347 745.93347
134.53868 149.94794 720.55011 720.55011
127.12076 43.323387 722.20398 722.20398
135.08382 98.096062 706.37573 706.37573
159.30617 112.13103 720.40344 720.40344
40.145771 73.484673 724.40631 724.40631
146.31207 66.124168 718.09991 718.09991
57.97094 19.84481 757.47113 757.47113
41.867397 20.774612 781.45441 781.45441
66.302429 172.47086 739.89636 739.89636
118.70492 60.695683 709.97058 709.97058
88.042412 49.269882 714.65674 714.65674
106.74871 153.87334 716.02313 716.02313
97.76873 14.148336 748.77002 748.77002
102.19316 45.975655 715.87769 715.87769
161.24979 66.330879 728.48181 728.48181
99.856796 29.863907 728.71948 728.71948
138.74356 32.237228 737.49286 737.49286
66.49044 42.365837 725.46533 725.46533
123.27576 158.85303 722.57544 722.57544
195.52443 100.94015 770.43317 770.43317
86.827377 115.56941 702.10168 702.10168
64.779099 74.883095 709.84106 709.84106
33.382607 171.45605 778.64221 778.64221
63.93721 98.987663 706.7345 706.7345
65.241333 192.55293 784.97369 784.97369
148.36026 127.40968 716.8736 716.8736
135.15327 156.90034 725.65894 725.65894
184.55925 131.27052 756.73468 756.73468
84.497787 68.159119 706.48083 706.48083
162.63452 116.79976 723.8772 723.8772
173.68639 68.199196 740.34241 740.34241
65.488525 54.105175 718.13043 718.13043
147.13524 98.41111 711.81982 711.81982
69.088104 177.75745 745.2439 745.2439
119.67693 85.277122 703.06677 703.06677
43.463825 167.68361 752.85565 752.85565
120.58063 125.42191 705.50049 705.50049
122.67252 11.364881 759.62958 759.62958
17.841295 142.79849 762.34052 762.34052
97.285843 173.939 732.72699 732.72699
151.33817 185.73218 796.20703 796.20703
68.522331 37.077229 728.9375 728.9375
64.614807 15.413651 760.08716 760.08716
181.21242 132.50053 751.54114 751.54114
91.405121 150.43643 714.07971 714.07971
129.17522 159.0775 724.77594 724.77594
87.791008 76.454636 703.58136 703.58136
81.849182 105.94678 701.841 701.841
119.42944 24.573793 737.28333 737.28333
47.931854 146.48615 728.39032 728.39032
80.399773 108.71848 702.328 702.328
59.258125 134.79294 715.56335 715.56335
112.41531 99.313118 700.77606 700.77606
121.62768 139.48196 710.70599 710.70599
60.493477 47.998219 724.2699 724.2699
46.117039 34.495792 747.02997 747.02997
14.844139 88.359444 748.88269 748.88269
39.447411 162.48711 750.71771 750.71771
184.36609 141.84462 766.36383 766.36383
14.811388 128.40671 756.00049 756.00049
41.812817 76.548264 722.12659 722.12659
168.68694 134.84326 736.21869 736.21869
27.553827 148.70807 751.22424 751.22424
92.788933 19.602451 740.9726 740.9726
38.584225 176.48727 780.56293 780.56293
64.607201 95.909836 706.56219 706.56219
50.043976 148.62816 728.30829 728.30829
61.849819 93.087837 707.82196 707.82196
43.954708 108.58836 717.62787 717.62787
11.961473 52.808571 795.28973 795.28973
100.13435 128.84401 704.25031 704.25031
91.567863 171.01733 730.10413 730.10413
60.372375 150.12068 723.07428 723.07428
76.56591 26.550442 736.31323 736.31323
67.690865 164.22372 730.49152 730.49152
88.476929 189.599 757.11365 757.11365
86.625587 7.8763142 763.47119 763.47119
171.3835 147.88167 748.89478 748.89478
126.59971 133.49835 709.61023 709.61023
70.050125 15.488275 755.71936 755.71936
85.676407 23.070986 737.73639 737.73639
186.95305 143.68329 776.95795 776.95795
178.63351 100.32045 738.22083 738.22083
92.266922 110.24539 700.82727 700.82727
109.28985 72.068634 704.43048 704.43048
109.4315 56.671196 710.36932 710.36932
48.1134 48.025673 732.12915 732.12915
172.20836 127.71304 736.61279 736.61279
63.43898 160.49138 729.26044 729.26044
89.025467 136.4785 707.53986 707.53986
62.996967 122.42357 709.84479 709.84479
147.54973 178.51112 760.31335 760.31335
44.149391 88.348923 717.87231 717.87231
129.24933 43.830936 722.60803 722.60803
155.33607 88.968452 717.43958 717.43958
127.61197 6.1521468 779.2597 779.2597
153.74016 108.59761 716.10675 716.10675
170.53859 157.37018 758.37103 758.37103
145.91414 183.96565 770.98859 770.98859
72.547112 139.86342 712.49432 712.49432
63.351898 121.36256 709.44305 709.44305
37.6576 33.564438 758.77209 758.77209
175.17389 80.740288 736.92902 736.92902
188.1003 111.2993 754.05804 754.05804
120.54585 144.66127 712.91821 712.91821
144.59061 44.573467 729.7179 729.7179
99.491669 28.830667 729.75281 729.75281
52.459846 12.121954 795.83075 795.83075
138.03278 190.51331 781.00397 781.00397
5.5055823 83.259735 771.88293 771.88293
67.336327 130.31256 710.47778 710.47778
24.800188 148.40793 755.26007 755.26007
19.837967 128.33101 747.3559 747.3559
30.508926 36.411346 766.42212 766.42212
29.603529 94.19426 729.21417 729.21417
59.539558 139.77167 717.65216 717.65216
135.57155 117.49984 708.19354 708.19354
143.24857 125.68749 713.57251 713.57251
72.116096 117.52695 705.57916 705.57916
60.706879 132.87086 714.11896 714.11896
77.715027 3.4696651 786.38843 786.38843
143.02759 177.95987 754.49304 754.49304
46.530701 66.976151 722.21533 722.21533
19.739618 80.364189 743.67322 743.67322
165.37827 45.16684 747.8559 747.8559
80.406609 4.8340278 776.34546 776.34546
133.52293 147.2841 718.51117 718.51117
144.19994 184.41579 769.6629 769.6629
141.72763 41.864048 730.15002 730.15002
51.425182 75.180641 716.18781 716.18781
76.403725 50.116848 716.604 716.604
124.49021 128.06841 707.19702 707.19702
143.85153 83.804169 711.599 711.599
143.16306 182.01236 762.43774 762.43774
123.54276 130.09892 707.58899 707.58899
92.587212 2.0118785 781.46954 781.46954
110.00272 128.9653 704.81091 704.81091
116.01012 88.74826 701.93335 701.93335
157.19525 32.953827 752.73993 752.73993
36.125492 160.60452 752.59601 752.59601
11.643289 65.473328 768.36139 768.36139
99.315712 2.5317383 777.65118 777.65118
77.521355 140.05045 711.17053 711.17053
184.86865 105.9239 747.44318 747.44318
122.32174 169.27367 731.4223 731.4223
127.96887 129.38124 708.59711 708.59711
128.27831 113.70902 705.06635 705.06635
110.24773 196.22729 774.79498 774.79498
99.051323 42.086414 718.48242 718.48242
40.870441 125.77354 723.58392 723.58392
75.26519 122.03678 705.64661 705.64661
108.86241 184.91896 747.94019 747.94019
162.62199 129.08444 727.66345 727.66345
86.299553 181.24713 743.33252 743.33252
187.32225 86.158554 753.27484 753.27484
54.560234 53.185169 724.21344 724.21344
20.425163 72.277069 746.15503 746.15503
67.408203 149.53937 719.479 719.479
36.37981 28.09017 772.04559 772.04559
71.499237 135.68141 711.03625 711.03625
36.768524 79.59034 725.26563 725.26563
110.137 28.600445 730.72272 730.72272
34.091976 135.31209 733.59827 733.59827
51.034737 102.14666 712.83466 712.83466
130.23254 102.32979 704.70801 704.70801
33.856117 136.5184 734.49127 734.49127
161.65137 87.735046 722.22675 722.22675
97.745285 169.61067 728.24158 728.24158
31.798288 54.421616 742.80615 742.80615
36.983917 110.42552 723.05664 723.05664
99.051216 155.3228 716.70239 716.70239
92.564407 109.42832 700.72351 700.72351
85.124603 122.37017 703.67609 703.67609
146.57603 105.46846 711.67804 711.67804
93.192123 82.486847 701.78113 701.78113
97.945313 54.242699 711.10657 711.10657
113.88693 78.453102 703.34143 703.34143
143.31094 90.934525 710.32294 710.32294
130.19086 122.63574 707.39258 707.39258
133.77228 63.351597 713.30322 713.30322
113.23615 31.434172 728.42114 728.42114
60.419071 33.495678 736.67126 736.67126
76.163963 158.28581 722.31726 722.31726
88.273979 95.254814 700.80328 700.80328
9.7890005 93.629494 757.3222 757.3222
145.32854 70.652634 715.83319 715.83319
38.13134 45.833282 743.09448 743.09448
179.55373 98.965279 739.4184 739.4184
171.80977 84.16227 732.23181 732.23181
187.10147 129.84116 760.97644 760.97644
58.155186 95.87265 709.26978 709.26978
48.375038 166.34221 745.83752 745.83752
96.577209 76.80645 702.78711 702.78711
62.939655 16.342676 759.65173 759.65173
44.847435 40.24234 741.80017 741.80017
68.252472 112.29356 705.97363 705.97363
115.14818 74.934692 704.38483 704.38483
45.557995 21.423548 770.64343 770.64343
35.624676 87.11898 724.5686 724.5686
149.84296 170.42256 749.4397 749.4397
109.56503 132.08354 705.77075 705.77075
141.64548 14.764463 768.36841 768.36841
164.06348 164.65054 758.57324 758.57324
57.969219 19.164103 758.78143 758.78143
36.686695 66.21637 730.35742 730.35742
159.00653 50.187801 736.46283 736.46283
129.1835 11.798566 763.00232 763.00232
143.51344 33.487518 739.315 739.315
72.135956 166.43312 730.64417 730.64417
129.83936 57.614815 714.48328 714.48328
58.578426 45.382015 727.19116 727.19116
176.39337 54.366772 754.37476 754.37476
143.75777 32.283443 740.84149 740.84149
167.71136 133.37766 734.41724 734.41724
91.289955 165.84499 725.24323 725.24323
130.18008 161.70346 727.32367 727.32367
87.394135 139.49506 708.99872 708.99872
90.370155 151.17751 714.62946 714.62946
145.93976 173.68091 750.39496 750.39496
118.50671 30.85878 730.16455 730.16455
150.42358 171.75708 751.95435 751.95435
168.46965 98.306259 727.13684 727.13684
13.657904 135.83987 764.49585 764.49585
70.884827 61.706535 712.33063 712.33063
36.727123 106.10439 722.80365 722.80365
23.241415 56.647999 752.79065 752.79065
32.886345 122.54688 729.37848 729.37848
116.01032 91.779037 701.63293 701.63293
151.60344 130.85681 720.09418 720.09418
65.796059 20.975843 749.15442 749.15442
105.26005 116.78904 701.55988 701.55988
88.85701 94.24028 700.78979 700.78979
106.12968 149.28427 713.20435 713.20435
119.68549 36.496338 725.30219 725.30219
188.11394 96.986595 752.81042 752.81042
27.004423 110.15237 732.40875 732.40875
183.63823 129.93968 754.08417 754.08417
79.298676 43.539944 720.10181 720.10181
147.63858 176.72372 757.05774 757.05774
183.58833 45.776222 791.4693 791.4693
13.005177 144.32947 778.39447 778.39447
40.030499 115.57231 721.50696 721.50696
124.25772 117.65636 704.60706 704.60706
186.28882 114.73068 751.65491 751.65491
137.67235 145.03403 719.05109 719.05109
73.665527 143.12547 713.70581 713.70581
62.905441 77.068237 710.01038 710.01038
46.446537 50.702053 731.43079 731.43079
14.509428 90.500565 748.99878 748.99878
170.93881 162.50243 767.42499 767.42499
28.770212 145.30753 746.39453 746.39453
115.42804 32.838886 727.53375 727.53375
66.889206 30.620584 736.04553 736.04553
172.81737 148.88962 751.96423 751.96423
21.888374 71.176201 744.61261 744.61261
123.11512 167.74138 730.16595 730.16595
188.26549 123.81142 759.47571 759.47571
69.522438 55.699928 715.68738 715.68738
54.737247 45.802811 729.1908 729.1908
80.697212 166.72322 728.05963 728.05963
14.009821 129.59587 758.40942 758.40942
91.305183 182.58354 744.2832 744.2832
44.43187 106.89311 717.14673 717.14673
88.088371 64.119377 707.42194 707.42194
53.833027 89.115784 711.96509 711.96509
22.932301 46.126537 765.96741 765.96741
96.590225 188.70338 753.95563 753.95563
140.00928 125.50772 711.97382 711.97382
122.54618 181.63814 746.83154 746.83154
49.28159 124.03037 717.23413 717.23413
86.963638 151.06708 715.01642 715.01642
77.86142 41.60611 721.89728 721.89728
145.89122 103.26929 711.21204 711.21204
113.72546 170.19824 730.11566 730.11566
77.808296 55.708675 713.13342 713.13342
87.312302 114.47086 701.86938 701.86938
125.45547 149.96217 717.20026 717.20026
176.87088 139.73775 749.88232 749.88232
23.090294 124.66083 741.03613 741.03613
4.4537902 90.518745 772.05316 772.05316
35.020336 168.09151 766.21851 766.21851
66.10112 32.007618 734.97766 734.97766
106.48414 51.347507 712.87427 712.87427
65.509209 29.232204 738.33716 738.33716
162.57639 117.24947 723.92993 723.92993
127.13714 4.0890923 791.95795 791.95795
169.29089 108.57671 728.40942 728.40942
65.097122 164.299 731.82794 731.82794
157.19281 25.756111 765.11694 765.11694
55.662853 183.97122 768.64636 768.64636
26.140203 54.088867 750.63507 750.63507
38.262447 98.153694 721.3548 721.3548
44.375809 35.862366 747.15765 747.15765
144.66605 116.92083 712.14429 712.14429
132.61906 106.73053 705.70953 705.70953
66.998444 15.885195 757.15613 757.15613
61.162682 154.40875 725.62695 725.62695
98.795959 90.272087 700.48157 700.48157
12.319006 135.4317 767.49402 767.49402
136.0045 18.530052 754.54315 754.54315
80.752724 141.77287 711.2049 711.2049
103.12447 31.533966 727.18079 727.18079
100.26671 181.79672 742.47412 742.47412
36.93465 90.999626 722.91724 722.91724
29.437607 49.063625 750.74115 750.74115
31.503578 109.81316 727.80621 727.80621
57.761936 83.582268 710.85742 710.85742
100.1387 172.74847 731.38776 731.38776
35.411415 161.13715 754.27728 754.27728
25.117519 61.509323 746.04553 746.04553
126.99448 175.09474 739.73328 739.73328
119.44344 169.64319 730.92194 730.92194
73.83091 147.50227 715.98389 715.98389
54.034859 126.46262 715.22418 715.22418
78.793304 173.49756 735.59204 735.59204
49.36079 164.03172 742.24524 742.24524
104.15531 148.98941 712.9209 712.9209
157.04048 153.85832 737.98657 737.98657
64.836205 52.697147 719.21667 719.21667
11.928434 90.611565 753.57526 753.57526
71.318481 35.191662 729.45038 729.45038
171.41769 40.913815 762.47217 762.47217
69.66153 76.709404 707.60345 707.60345
104.83826 124.50568 703.16992 703.16992
59.248352 76.131905 711.85455 711.85455
15.087232 81.251266 750.62079 750.62079
180.11853 72.573082 746.81366 746.81366
109.13275 41.6982 719.26898 719.26898
65.18914 170.02864 737.6767 737.6767
100.17116 17.984026 742.7868 742.7868
101.63867 187.68649 751.95422 751.95422
85.768333 162.17583 722.98297 722.98297
148.95497 74.342255 716.66278 716.66278
160.46095 36.163483 752.36206 752.36206
109.34563 91.833321 700.77319 700.77319
97.299156 51.748745 712.45276 712.45276
131.36467 80.488625 707.07227 707.07227
87.910995 192.64407 764.34985 764.34985
43.128506 162.66983 746.72595 746.72595
58.367359 59.948826 718.37506 718.37506
23.162874 155.85544 768.75537 768.75537
150.83984 78.856171 716.52399 716.52399
91.718925 58.62608 709.33789 709.33789
42.301147 150.64178 735.91998 735.91998
117.5403 79.903671 703.62329 703.62329
45.010479 158.50775 740.39301 740.39301
106.4045 196.16687 773.33704 773.33704
38.138943 22.105171 789.72357 789.72357
132.66299 7.7145853 779.59088 779.59088
156.80748 98.365456 717.71857 717.71857
57.976818 189.56851 785.45581 785.45581
160.89848 78.742561 723.58337 723.58337
45.052212 21.081654 772.5658 772.5658
39.536877 67.10836 727.45795 727.45795
140.47408 62.8731 716.43298 716.43298
8.5671806 110.23725 760.81787 760.81787
47.148037 107.57302 715.44635 715.44635
102.80234 65.916191 706.0296 706.0296
23.54413 124.01155 740.18408 740.18408
7.5245461 66.974937 781.08875 781.08875
160.82211 61.007999 730.86035 730.86035
62.763733 134.80013 713.96271 713.96271
149.72859 89.760834 713.84766 713.84766
124.2787 15.856856 751.72498 751.72498
56.716347 171.27304 744.80328 744.80328
16.183565 96.031441 745.60278 745.60278
190.83138 118.9213 762.69525 762.69525
69.134171 52.615757 717.52557 717.52557
129.68463 176.73155 743.15729 743.15729
191.11691 89.003799 760.29114 760.29114
22.604137 122.69749 740.88397 740.88397
104.99123 177.59845 737.12262 737.12262
122.35391 4.4222317 780.88995 780.88995
127.07664 169.98207 733.8988 733.8988
63.494301 61.197895 715.37299 715.37299
73.477013 149.08783 717.01257 717.01257
135.60416 112.47561 707.38953 707.38953
64.000397 127.41725 710.82422 710.82422
2.6745331 85.932777 781.83777 781.83777
81.938019 133.06564 707.36938 707.36938
198.38681 83.525673 793.02637 793.02637
26.571634 49.552872 754.57574 754.57574
195.71498 106.06022 771.68188 771.68188
138.64151 174.93915 746.23236 746.23236
80.30687 98.078407 701.97711 701.97711
14.183074 79.480019 752.94275 752.94275
79.838814 19.555445 744.12335 744.12335
136.29677 189.36723 773.61737 773.61737
97.795097 150.04085 713.44916 713.44916
139.61674 110.67253 708.80457 708.80457
8.1357622 119.16538 765.45074 765.45074
190.73795 110.61721 759.33185 759.33185
91.745544 2.9139161 777.50208 777.50208
45.933498 50.356781 732.08563 732.08563
40.179291 175.63214 773.51868 773.51868
121.43599 133.82118 708.36688 708.36688
113.31198 115.98934 702.18829 702.18829
110.02531 129.69159 705.03735 705.03735
121.44621 82.043358 703.99158 703.99158
129.47755 73.400185 708.22021 708.22021
138.09161 7.8081312 792.95099 792.95099
26.251444 127.84325 738.47028 738.47028
23.655962 140.50081 749.68823 749.68823
46.402695 56.056435 727.91467 727.91467
134.72968 189.36258 771.57147 771.57147
62.22406 115.51431 708.71863 708.71863
38.527378 45.357246 743.12042 743.12042
114.95219 115.68959 702.37689 702.37689
75.42395 153.44298 719.13055 719.13055
103.27072 82.271667 701.63837 701.63837
71.42627 19.884232 747.41669 747.41669
60.187798 47.603245 724.70349 724.70349
49.249985 162.22029 740.39233 740.39233
160.49225 126.76851 725.00574 725.00574
138.89854 124.41408 711.16949 711.16949
99.217979 9.4447155 757.58386 757.58386
188.86537 93.051178 754.67163 754.67163
131.93134 10.773069 768.0791 768.0791
116.95773 52.60421 713.59357 713.59357
130.31975 53.90414 716.59802 716.59802
161.05273 101.01744 720.80701 720.80701
105.12378 168.25201 727.09314 727.09314
147.5208 42.759846 733.17682 733.17682
75.740036 150.82838 717.36871 717.36871
162.56401 153.73064 743.44238 743.44238
174.15681 98.998299 732.91974 732.91974
133.40385 113.52893 706.72003 706.72003
29.969471 167.40955 776.51221 776.51221
55.665588 44.007034 730.00537 730.00537
142.06192 178.22903 754.05426 754.05426
73.011612 117.23586 705.26587 705.26587
77.067154 118.80714 704.49933 704.49933
62.109375 23.851448 747.4101 747.4101
37.880569 124.88749 725.69128 725.69128
192.79182 78.915428 769.2572 769.2572
4.2193432 74.522392 786.69745 786.69745
114.20164 148.97783 713.97974 713.97974
98.59861 138.17563 707.58435 707.58435
109.73177 35.930309 723.83984 723.83984
101.39624 193.68845 765.06396 765.06396
36.337227 84.742393 724.40729 724.40729
66.61084 7.6219716 781.25262 781.25262
158.1026 102.71201 718.65668 718.65668
130.95634 51.789421 718.03998 718.03998
159.33394 102.98417 719.56012 719.56012
77.588402 83.629074 703.92859 703.92859
126.80465 60.199833 712.26483 712.26483
112.57925 181.03728 742.77484 742.77484
159.64804 47.120701 739.61877 739.61877
33.732132 64.11731 734.26569 734.26569
174.03648 134.75049 742.45868 742.45868
143.33139 91.933006 710.23743 710.23743
25.468964 106.60165 733.65588 733.65588
77.065506 96.09951 702.74365 702.74365
106.25721 163.94203 723.36932 723.36932
55.821888 83.425064 711.83215 711.83215
124.95096 56.575848 713.44482 713.44482
133.0256 74.771629 709.04486 709.04486
35.47908 35.33186 759.31726 759.31726
67.872498 44.977135 722.92664 722.92664
145.37378 101.53459 710.89966 710.89966
172.37225 101.89493 731.01691 731.01691
125.59532 50.903286 716.72699 716.72699
145.59581 66.864426 717.39819 717.39819
174.63982 84.98925 735.16504 735.16504
130.03914 40.797997 725.21515 725.21515
132.41896 95.065704 705.52954 705.52954
73.037979 191.5735 770.21167 770.21167
146.52118 174.93874 752.88348 752.88348
118.50739 63.090221 708.9223 708.9223
4.4980817 129.02452 793.92047 793.92047
124.97678 132.71585 708.86365 708.86365
169.71048 45.35556 753.58411 753.58411
154.41301 126.79058 720.49219 720.49219
3.3534071 91.773094 775.67401 775.67401
147.97028 121.04028 714.81689 714.81689
137.1633 87.796989 707.96753 707.96753
103.90779 33.805767 725.14648 725.14648
28.529591 44.028538 758.0575 758.0575
184.40593 78.080925 751.05927 751.05927
105.05229 169.14792 727.93726 727.93726
115.73401 67.158379 706.86639 706.86639
186.08766 117.8158 752.3396 752.3396
132.03691 146.87759 717.68274 717.68274
161.28143 118.43957 723.15881 723.15881
143.88707 59.674133 719.70215 719.70215
139.06958 82.532379 709.62054 709.62054
70.23172 125.41216 707.97791 707.97791
100.52293 4.3818841 770.72711 770.72711
77.745369 146.67308 714.40588 714.40588
127.40842 194.51207 782.21667 782.21667
67.91909 79.593834 707.51001 707.51001
5.9084501 131.60893 787.84869 787.84869
110.54395 132.75819 706.10791 706.10791
78.642479 88.18145 703.02484 703.02484
169.18456 119.38146 730.44531 730.44531
122.43784 92.037285 702.87567 702.87567
147.83409 84.318161 713.59412 713.59412
113.40745 55.657619 711.37726 711.37726
68.686607 158.68091 725.32721 725.32721
83.023766 114.04029 702.45679 702.45679
23.822632 159.25818 773.81842 773.81842
56.875641 132.61195 715.87659 715.87659
128.48274 19.511269 747.93945 747.93945
146.81244 140.93234 721.68567 721.68567
154.22597 147.22147 730.50415 730.50415
120.67913 61.073566 710.23865 710.23865
187.52466 53.664635 786.12671 786.12671
173.45683 145.71687 749.85956 749.85956
15.152538 47.816364 791.18085 791.18085
196.00386 121.97838 782.67346 782.67346
96.866844 57.338196 709.61108 709.61108
131.44753 179.81287 748.60974 748.60974
69.229164 6.5258207 782.23114 782.23114
121.61363 119.69749 704.37122 704.37122
21.819792 158.39705 778.14502 778.14502
36.693829 63.907196 731.51904 731.51904
27.752083 126.70383 736.22583 736.22583
167.30736 138.40781 736.79749 736.79749
71.629913 16.954433 752.05658 752.05658
14.001153 61.335678 766.69434 766.69434
54.693604 78.698914 713.43445 713.43445
154.41516 175.73093 763.8916 763.8916
72.314011 53.553234 715.87994 715.87994
147.91161 38.082275 737.78528 737.78528
31.645336 38.754543 760.29315 760.29315
182.33943 127.66209 750.45178 750.45178
46.74535 147.84827 730.1825 730.1825
95.964684 158.81802 719.22778 719.22778
195.77635 115.6733 775.89111 775.89111
60.072006 9.5728731 784.8775 784.8775
71.96714 160.44794 725.43323 725.43323
41.861065 101.44339 718.65027 718.65027
60.623695 50.231258 722.71753 722.71753
102.12877 113.91785 700.99615 700.99615
36.988094 136.9406 731.69995 731.69995
103.41346 97.798386 700.08252 700.08252
43.635757 63.239883 726.02863 726.02863
140.10826 92.793564 708.67969 708.67969
68.964119 85.409943 706.06433 706.06433
102.68431 191.44574 759.62091 759.62091
64.574699 115.38638 707.75952 707.75952
89.991257 127.7895 704.46167 704.46167
91.677734 162.32634 722.24292 722.24292
171.34158 149.36543 750.26636 750.26636
91.847458 166.97681 726.19183 726.19183
59.883827 18.229221 758.71765 758.71765
156.11826 87.742317 718.14349 718.14349
21.5839 111.13351 738.95117 738.95117
46.808044 129.30652 720.55353 720.55353
174.05582 147.48636 752.45233 752.45233
53.715057 15.139222 774.38062 774.38062
149.12891 68.34436 718.85645 718.85645
95.816498 110.7482 700.66736 700.66736
33.677868 75.840439 729.16431 729.16431
152.91672 65.249092 722.5907 722.5907
191.63283 113.70242 762.37463 762.37463
125.74942 183.62625 751.58911 751.58911
85.083595 108.19232 701.45868 701.45868
89.767479 34.660904 724.99268 724.99268
62.897675 23.635098 747.16235 747.16235
124.80186 178.03358 742.59247 742.59247
132.34354 131.2872 710.69708 710.69708
107.5477 69.157639 705.17499 705.17499
77.229057 126.47981 706.29675 706.29675
135.85213 121.68918 709.20239 709.20239
84.134903 123.35716 704.06909 704.06909
139.88034 189.10281 778.31482 778.31482
124.03747 104.77637 703.04956 703.04956
121.93458 68.406403 707.69226 707.69226
80.590912 77.502762 704.51617 704.51617
87.659004 69.265991 705.64368 705.64368
76.049141 30.992317 731.70435 731.70435
164.81625 154.42393 746.73755 746.73755
131.71902 107.45437 705.45721 705.45721
144.8961 183.10875 767.1781 767.1781
93.304207 173.22461 732.22595 732.22595
138.98787 125.96849 711.65076 711.65076
140.364 36.642021 733.99609 733.99609
46.353329 113.13604 716.63647 716.63647
41.679512 141.81924 730.35901 730.35901
147.01181 175.17435 753.75385 753.75385
117.60526 46.611374 717.29749 717.29749
99.375031 160.83725 720.63733 720.63733
47.769936 28.781971 753.0957 753.0957
121.29372 80.429955 704.27338 704.27338
118.13841 195.11836 775.03009 775.03009
148.60764 66.770401 719.17249 719.17249
126.61799 80.879707 705.52301 705.52301
52.824871 86.656662 712.84229 712.84229
24.792351 134.04146 743.56427 743.56427
159.54311 63.741905 728.3064 728.3064
117.84694 48.236954 716.32159 716.32159
70.644699 42.535133 723.6059 723.6059
75.559799 96.68856 703.08917 703.08917
89.529396 52.695507 712.52057 712.52057
145.70103 145.42006 723.52496 723.52496
149.7906 114.0554 714.42346 714.42346
140.81764 182.15868 760.20209 760.20209
80.97303 6.1389503 771.22369 771.22369
40.321598 22.720791 778.40344 778.40344
148.09418 52.949471 726.01892 726.01892
151.71422 86.873337 715.42261 715.42261
177.9207 125.72382 742.8454 742.8454
189.74739 87.656715 757.65558 757.65558
177.72079 96.834839 737.15527 737.15527
74.57991 179.4113 744.79437 744.79437
99.53524 92.958511 700.24933 700.24933
45.279438 99.755234 716.30054 716.30054
112.36447 108.88232 701.16565 701.16565
107.45366 182.04131 743.31079 743.31079
21.856295 120.93286 741.21753 741.21753
169.35239 103.09647 728.02319 728.02319
122.01992 35.886837 726.48383 726.48383
116.57363 105.35959 701.52875 701.52875
110.84451 197.8808 782.62915 782.62915
80.182808 3.6676488 781.90698 781.90698
38.662285 129.50511 726.73926 726.73926
153.89859 144.32524 728.37451 728.37451
20.323641 55.656181 758.94757 758.94757
65.517418 159.56485 727.45361 727.45361
65.812302 183.57716 757.03418 757.03418
130.40656 80.466339 706.75903 706.75903
144.18185 67.149384 716.52063 716.52063
26.052416 104.14921 732.80969 732.80969
54.650543 54.189564 723.54852 723.54852
120.09636 105.75343 702.20923 702.20923
108.77344 18.419416 742.83679 742.83679
62.254787 50.806988 721.54401 721.54401
59.646629 107.10547 708.77985 708.77985
15.707501 85.620995 748.15387 748.15387
110.13905 101.83832 700.53235 700.53235
35.140129 109.91357 724.53534 724.53534
108.79012 79.432526 702.53351 702.53351
92.190536 26.888927 732.22253 732.22253
24.587233 138.47101 746.77502 746.77502
148.58115 43.926807 732.95026 732.95026
52.459961 133.54973 718.67126 718.67126
49.540321 31.295132 747.71747 747.71747
40.399685 75.326797 723.58643 723.58643
84.338226 192.85046 766.33252 766.33252
197.2876 84.327721 782.98523 782.98523
149.74506 144.24957 725.38495 725.38495
80.24794 157.66925 720.7276 720.7276
168.35725 133.99821 735.41357 735.41357
97.376511 65.312485 706.24554 706.24554
90.683678 154.84351 716.90131 716.90131
49.161686 155.19809 733.90436 733.90436
100.48709 154.18907 715.95654 715.95654
170.12277 132.22763 736.40613 736.40613
68.43055 152.54744 720.9928 720.9928
136.83746 9.8951645 777.10632 777.10632
29.770475 146.90746 746.45093 746.45093
118.79015 92.43766 702.07275 702.07275
138.33948 132.71471 713.6297 713.6297
192.84807 66.520363 783.9267 783.9267
83.834267 87.476768 702.11316 702.11316
40.146847 137.14989 729.02478 729.02478
79.799042 170.61755 732.13922 732.13922
4.2875257 113.97649 774.6272 774.6272
45.160652 153.12505 735.42157 735.42157
106.90558 17.47657 743.9447 743.9447
65.882835 116.22153 707.41016 707.41016
112.54033 70.317192 705.33392 705.33392
123.2615 168.29501 730.75629 730.75629
151.53741 80.775955 716.48755 716.48755
107.63155 4.6198478 770.94165 770.94165
187.67004 55.007595 782.98102 782.98102
132.79361 163.50481 730.0592 730.0592
113.96336 178.70224 739.90857 739.90857
161.89215 92.295784 721.8335 721.8335
108.72962 167.26671 726.52222 726.52222
103.34327 106.22217 700.24976 700.24976
191.62657 94.080551 760.38269 760.38269
9.081687 63.53516 779.89587 779.89587
98.806351 184.4565 746.46802 746.46802
129.86218 109.72144 705.05927 705.05927
17.355288 92.310089 744.2262 744.2262
127.13947 183.72595 752.52985 752.52985
68.707222 8.2976074 775.27283 775.27283
109.38715 157.76544 718.91339 718.91339
175.98615 71.441925 741.60016 741.60016
120.11246 189.13942 759.38409 759.38409
98.245224 31.306643 727.34918 727.34918
112.95955 98.932899 700.84906 700.84906
110.64186 6.2116318 766.97736 766.97736
65.209862 142.93805 716.65753 716.65753
104.08704 182.90614 744.23383 744.23383
13.099648 113.55894 752.41339 752.41339
139.46945 61.008148 716.80267 716.80267
115.84627 101.62021 701.27679 701.27679
4.8494568 89.045891 771.25311 771.25311
106.52747 41.750164 718.97931 718.97931
21.977888 80.85144 740.4527 740.4527
5.5851049 111.50935 769.12341 769.12341
55.139587 113.24756 711.61426 711.61426
136.86037 186.27164 765.38037 765.38037
162.83681 31.404247 763.31 763.31
105.25752 159.96954 720.15009 720.15009
112.02664 197.43088 780.95837 780.95837
95.9412 147.44739 712.06665 712.06665
95.174751 104.85602 700.23462 700.23462
46.396061 172.20996 756.26971 756.26971
66.434067 25.2729 742.64856 742.64856
143.34349 152.54033 726.7821 726.7821
160.79062 105.77617 720.80951 720.80951
57.026436 17.899382 762.41327 762.41327
113.27494 144.73697 711.55579 711.55579
41.49818 150.89748 736.85742 736.85742
95.103134 65.164276 706.39178 706.39178
60.725994 27.906681 742.90265 742.90265
164.21451 43.249153 748.46515 748.46515
45.958183 162.25502 743.39795 743.39795
6.9653859 115.01476 766.54681 766.54681
18.765265 140.94641 758.47522 758.47522
82.545944 26.274183 734.73242 734.73242
91.895172 169.33124 728.39349 728.39349
18.790255 108.89969 742.33051 742.33051
35.422424 150.05531 742.34412 742.34412
154.68851 40.437237 741.16595 741.16595
66.431442 111.11823 706.46106 706.46106
118.77596 20.454601 742.38062 742.38062
83.706352 1.4352551 795.58325 795.58325
24.789333 128.5125 740.58289 740.58289
46.674217 62.96286 723.94336 723.94336
180.00339 144.88007 760.18494 760.18494
144.76337 95.325478 710.70056 710.70056
118.10328 25.82007 735.42749 735.42749
122.62578 58.483688 711.88379 711.88379
132.69618 182.81122 754.46692 754.46692
123.87724 190.23389 764.11517 764.11517
143.97403 78.109146 712.89618 712.89618
160.90459 84.97776 722.12213 722.12213
62.656124 49.945114 721.89789 721.89789
38.918144 176.83676 780.89191 780.89191
83.095901 21.172686 740.8349 740.8349
31.246632 167.57716 773.42371 773.42371
42.319729 141.55031 729.66821 729.66821
175.80095 110.48147 735.62335 735.62335
199.19621 87.352684 799.60474 799.60474
124.7368 148.31758 716.01489 716.01489
138.94998 184.53123 763.42993 763.42993
103.99168 159.05678 719.39996 719.39996
145.12695 73.804588 714.69257 714.69257
60.3778 8.6781902 790.4917 790.4917
89.969543 149.27843 713.56488 713.56488
26.481342 150.32976 754.59161 754.59161
174.99353 138.7216 746.36597 746.36597
94.870361 75.805733 703.10663 703.10663
155.52158 71.811172 721.75201 721.75201
97.958397 29.519745 729.08905 729.08905
168.5224 36.028248 765.18195 765.18195
40.655895 47.920574 738.63214 738.63214
49.366684 139.98131 723.59473 723.59473
196.10429 80.362877 780.54883 780.54883
180.60907 145.90919 762.65668 762.65668
171.56532 107.77493 730.5885 730.5885
93.491463 176.60164 736.04822 736.04822
32.463699 86.134811 727.56653 727.56653
46.993851 46.296146 734.37805 734.37805
83.49987 129.41701 705.85974 705.85974
73.964676 68.618286 708.69092 708.69092
80.63942 153.60207 717.82953 717.82953
32.471519 69.967773 732.63556 732.63556
135.51762 192.47662 786.34088 786.34088
165.20715 161.70006 755.94177 755.94177
55.261375 92.878578 710.84991 710.84991
67.181747 37.511799 729.16083 729.16083
78.661819 118.88396 704.14551 704.14551
39.644066 98.739204 720.27814 720.27814
46.808331 139.34206 725.01434 725.01434
74.493576 158.78125 723.22638 723.22638
76.43856 159.25002 722.96564 722.96564
81.687912 76.587189 704.51959 704.51959
39.289074 61.157429 730.67871 730.67871
48.031757 113.64333 715.66046 715.66046
19.550896 43.432529 781.88751 781.88751
116.86282 187.80902 755.22034 755.22034
57.052505 116.45862 711.20459 711.20459
146.80733 154.0984 730.12555 730.12555
122.56069 142.90034 712.53241 712.53241
65.398224 56.806915 716.71088 716.71088
110.67245 41.885838 719.32263 719.32263
97.100029 77.72226 702.55621 702.55621
39.470257 150.00395 738.06653 738.06653
141.56973 132.95457 715.22998 715.22998
38.43528 63.342781 730.24304 730.24304
174.62654 85.37014 735.06274 735.06274
139.34239 146.12653 720.47314 720.47314
68.437889 192.08846 777.11877 777.11877
86.821053 146.80685 712.61902 712.61902
72.641312 91.664253 704.17712 704.17712
33.982708 93.09874 725.20636 725.20636
54.75951 77.732124 713.64355 713.64355
86.319008 94.934715 701.06982 701.06982
1.1034145 85.673515 796.22937 796.22937
157.88496 111.83575 719.32007 719.32007
149.52335 160.12068 737.2868 737.2868
109.69261 169.68806 728.93927 728.93927
87.089333 47.923397 715.61194 715.61194
47.737606 157.92178 737.44037 737.44037
184.02049 71.301186 753.98987 753.98987
4.3221464 93.521332 771.64905 771.64905
149.49942 76.565994 716.33008 716.33008
183.77525 56.12867 767.48828 767.48828
55.475319 89.260712 711.10559 711.10559
45.583729 138.62631 725.52264 725.52264
55.896515 69.486366 715.59741 715.59741
36.221077 111.28011 723.80939 723.80939
7.8603745 92.626846 761.84338 761.84338
0.5571664 93.037041 792.08539 792.08539
114.19902 18.472082 743.86102 743.86102
105.90677 108.3149 700.52148 700.52148
131.33932 182.03906 752.17285 752.17285
166.69035 91.65535 725.95435 725.95435
187.64433 54.246384 784.99744 784.99744
90.876968 174.40172 733.80969 733.80969
104.21204 127.02495 703.81317 703.81317
28.915831 148.11694 748.69891 748.69891
147.6833 44.961811 731.4646 731.4646
72.54895 104.24779 703.93542 703.93542
128.80075 117.51728 705.85297 705.85297
75.814888 177.48445 741.59418 741.59418
149.56332 31.733009 746.30554 746.30554
191.26671 76.581123 766.50458 766.50458
139.89822 19.710831 755.70801 755.70801
91.390732 112.0201 701.09906 701.09906
83.337952 50.413822 714.77332 714.77332
64.953575 121.85506 708.92804 708.92804
81.213089 13.657988 753.18005 753.18005
114.36374 191.63072 762.61694 762.61694
14.283614 54.348904 776.15302 776.15302
130.36206 29.827213 735.54907 735.54907
33.689823 115.37864 726.7439 726.7439
54.829163 99.22039 710.78687 710.78687
103.21245 7.5490832 762.01965 762.01965
88.59819 195.89557 774.03772 774.03772
105.83117 182.02063 743.09119 743.09119
187.48715 116.86456 754.59534 754.59534
66.183632 88.448326 706.60291 706.60291
187.94025 139.70427 773.73053 773.73053
56.542175 172.32524 746.32996 746.32996
126.27966 187.71214 759.80103 759.80103
117.42457 82.627045 703.07446 703.07446
121.39893 102.19871 702.34113 702.34113
110.08384 113.38208 701.41382 701.41382
106.29314 79.370743 702.35352 702.35352
52.877598 134.98328 719.03302 719.03302
27.954582 89.315697 731.47772 731.47772
82.395889 182.38577 746.12347 746.12347
150.25479 108.42274 713.9563 713.9563
119.48282 12.26527 756.14752 756.14752
56.765354 83.074432 711.43201 711.43201
19.534496 91.473038 741.24121 741.24121
59.028278 152.25168 725.22644 725.22644
123.99094 98.424057 702.93329 702.93329
3.0691369 83.298767 781.95905 781.95905
138.97466 175.42836 747.16498 747.16498
67.706223 97.956154 705.38007 705.38007
73.196457 60.506142 712.12622 712.12622
120.95239 19.791498 744.07513 744.07513
138.91681 97.74929 707.91083 707.91083
70.5429 42.365734 723.77289 723.77289
88.162491 32.54594 727.13147 727.13147
18.638355 142.50876 760.33533 760.33533
138.79965 82.567184 709.49762 709.49762
107.07529 147.8176 712.45905 712.45905
119.5838 69.187149 706.90308 706.90308
96.823349 128.66826 704.25012 704.25012
182.71849 108.81233 744.50232 744.50232
167.93057 123.22089 730.38513 730.38513
42.272835 158.60237 743.13757 743.13757
123.00432 81.226578 704.50989 704.50989
192.32936 80.915962 766.66699 766.66699
104.63157 100.29522 700.10773 700.10773
124.7991 176.01561 739.94476 739.94476
12.17186 95.49955 752.39783 752.39783
35.43956 99.128952 723.63776 723.63776
124.07911 164.74156 727.69006 727.69006
68.615028 104.07877 705.14038 705.14038
64.128555 28.490984 740.0025 740.0025
69.280121 144.24719 715.74756 715.74756
82.402748 110.89272 702.16504 702.16504
120.33317 175.74478 737.95734 737.95734
153.0433 146.01852 728.80518 728.80518
138.33618 26.030489 744.69312 744.69312
73.657356 141.78398 713.05078 713.05078
105.38721 177.46864 736.99536 736.99536
28.477692 35.959209 772.01184 772.01184
36.623318 73.725578 727.24664 727.24664
117.77013 72.226318 705.59216 705.59216
5.7132611 122.63107 775.54907 775.54907
68.12484 153.54453 721.789 721.789
12.517248 112.46873 753.18866 753.18866
188.66322 143.27339 783.68292 783.68292
182.45226 72.793404 750.38721 750.38721
37.127995 69.247971 728.57574 728.57574
151.17302 87.661201 714.97601 714.97601
63.044094 178.0497 749.57672 749.57672
56.462662 115.03531 711.23944 711.23944
131.80434 121.15633 707.58307 707.58307
189.37874 120.68649 760.20667 760.20667
190.45271 132.83949 772.79938 772.79938
113.53146 88.573257 701.58087 701.58087
46.508766 134.21399 722.74658 722.74658
106.6159 14.134304 749.17371 749.17371
66.959305 75.459297 708.86237 708.86237
57.064491 169.38278 742.185 742.185
119.29427 52.071209 714.38129 714.38129
53.431862 175.11125 753.20569 753.20569
83.40374 133.16423 707.13074 707.13074
121.67912 50.779724 715.6947 715.6947
44.857361 87.750282 717.48193 717.48193
157.7771 108.20132 718.79321 718.79321
20.887531 125.01252 744.1825 744.1825
85.868263 150.69354 714.9679 714.9679
125.56525 53.128887 715.44519 715.44519
87.972084 164.84354 724.82922 724.82922
41.966965 37.42881 747.875 747.875
76.458069 106.637 703.03748 703.03748
21.763683 45.635204 769.61005 769.61005
160.23306 140.38319 731.1438 731.1438
180.76552 129.47311 748.92883 748.92883
37.904537 25.874016 774.51489 774.51489
127.23698 42.086655 723.16125 723.16125
113.26501 71.255714 705.14325 705.14325
170.85782 96.876678 729.50592 729.50592
189.43893 92.137268 755.96759 755.96759
6.3668871 104.83118 765.22211 765.22211
123.52395 86.901459 703.69293 703.69293
85.681763 115.66869 702.27856 702.27856
175.77249 127.09168 740.6319 740.6319
31.23613 36.237038 765.27515 765.27515
5.1135898 78.636398 776.75854 776.75854
91.470024 118.61623 702.11908 702.11908
8.8782625 115.06988 761.66296 761.66296
90.618309 181.64832 743.0304 743.0304
48.41608 41.14843 737.74573 737.74573
106.29685 71.586838 704.32849 704.32849
38.162468 165.95578 757.2688 757.2688
80.512283 167.96605 729.28333 729.28333
129.94496 19.421583 748.90771 748.90771
122.66233 94.645241 702.74908 702.74908
62.732822 19.781736 753.3504 753.3504
64.334801 109.58419 707.06921 707.06921
180.80861 111.13937 742.15637 742.15637
91.377296 74.778107 703.61792 703.61792
67.489479 107.09413 705.69867 705.69867
37.465645 159.34853 749.3324 749.3324
104.52069 151.5789 714.44781 714.44781
66.618126 190.86121 774.90234 774.90234
112.65426 32.597858 727.22076 727.22076
102.33229 150.2991 713.60229 713.60229
189.83809 139.74945 781.3158 781.3158
137.09447 32.892654 735.80804 735.80804
94.73539 84.38308 701.36737 701.36737
140.46492 16.284136 763.19995 763.19995
154.77008 149.55954 732.59015 732.59015
183.69606 116.69138 747.88123 747.88123
82.083252 113.89339 702.60406 702.60406
72.615936 35.876591 728.31805 728.31805
190.16388 116.00516 759.82153 759.82153
79.803291 192.36768 767.43768 767.43768
23.481129 128.18449 742.11652 742.11652
154.27922 142.15579 727.35944 727.35944
76.457275 151.38586 717.50616 717.50616
194.4136 120.5786 774.25909 774.25909
35.467937 141.68434 735.98413 735.98413
134.48495 93.068108 706.3905 706.3905
60.107948 105.6935 708.47839 708.47839
124.29481 184.55357 752.45575 752.45575
138.81841 35.368755 734.3042 734.3042
53.726154 101.4435 711.36224 711.36224
167.47298 121.88303 729.51221 729.51221
115.50425 112.37384 701.98718 701.98718
95.502357 109.7421 700.57733 700.57733
81.583992 191.38281 763.80566 763.80566
138.83282 96.084122 707.93115 707.93115
65.101707 181.02708 752.91797 752.91797
57.950855 185.43306 769.45392 769.45392
136.36815 187.90108 769.16565 769.16565
138.71252 61.108715 716.40088 716.40088
74.077614 170.59213 734.08508 734.08508
110.02877 168.48938 727.82916 727.82916
184.41241 65.11367 759.28772 759.28772
124.39077 178.45421 742.99097 742.99097
91.926231 106.97708 700.57092 700.57092
124.21571 57.506161 712.77686 712.77686
114.41871 23.903313 736.74341 736.74341
57.14175 40.451843 732.05011 732.05011
53.492195 13.416036 781.55432 781.55432
39.419323 102.87782 720.49091 720.49091
15.074432 50.204678 782.44794 782.44794
92.16214 173.80579 732.98303 732.98303
100.81778 96.832237 700.05353 700.05353
22.33176 146.77991 757.81842 757.81842
37.349804 44.603611 745.17126 745.17126
67.770042 167.32364 733.45111 733.45111
43.242828 50.898529 733.91168 733.91168
100.67075 53.407089 711.52032 711.52032
18.023993 140.70552 759.71356 759.71356
87.409966 22.066038 738.61768 738.61768
156.69902 133.67938 724.82739 724.82739
22.480392 77.010567 741.15955 741.15955
65.573723 140.73587 715.41028 715.41028
113.18205 72.124657 704.87274 704.87274
109.79224 84.848274 701.64075 701.64075
55.714905 68.634293 716.0058 716.0058
66.407585 107.2524 706.0907 706.0907
119.51858 82.860985 703.4325 703.4325
97.451233 97.700539 700.05896 700.05896
156.62711 47.004856 736.87402 736.87402
113.51244 115.32371 702.10925 702.10925
72.474876 151.98848 719.13245 719.13245
41.756012 64.993881 726.63647 726.63647
114.05546 160.56923 721.68134 721.68134
92.025261 55.002193 711.0528 711.0528
97.883659 1.9182994 780.62213 780.62213
145.05911 67.436539 716.87781 716.87781
198.27399 91.837074 783.39911 783.39911
85.876007 100.31039 701.00293 701.00293
146.70233 42.055489 733.20685 733.20685
180.76883 97.062706 741.11224 741.11224
180.20578 126.66644 746.55908 746.55908
129.52252 6.8969445 778.54675 778.54675
67.776024 25.701832 741.33655 741.33655
117.77422 66.133713 707.60327 707.60327
144.53108 161.37344 734.80579 734.80579
28.221777 49.293224 752.2851 752.2851
132.37622 122.09047 708.00116 708.00116
114.40873 142.54453 710.65601 710.65601
129.49661 24.754766 741.10938 741.10938
54.195667 112.74372 712.02521 712.02521
79.863235 50.44593 715.50793 715.50793
7.6948986 130.83122 776.99554 776.99554
138.79156 152.03345 723.92285 723.92285
135.72385 62.906784 714.28009 714.28009
143.69684 96.238953 710.13098 710.13098
20.677559 65.510895 749.8158 749.8158
103.61651 27.69261 731.01764 731.01764
74.417801 178.88506 744.1189 744.1189
73.867035 60.517765 711.91925 711.91925
71.059647 11.459281 763.62695 763.62695
44.374077 44.591244 738.06757 738.06757
23.872423 74.2117 740.50586 740.50586
104.08586 128.49014 704.23145 704.23145
187.44955 99.835152 751.49695 751.49695
114.22956 139.84421 709.39117 709.39117
139.56299 53.475887 720.81494 720.81494
134.52428 7.0360632 787.12439 787.12439
194.86403 106.70248 769.08246 769.08246
125.59257 112.31935 704.11853 704.11853
70.343262 36.313374 728.83478 728.83478
40.02121 155.31851 742.18646 742.18646
152.69705 139.57495 724.78802 724.78802
160.2123 123.64292 723.7406 723.7406
102.78207 197.53929 778.12885 778.12885
134.65192 102.32419 706.22449 706.22449
162.47346 60.612488 732.57825 732.57825
8.532711 93.866928 760.04852 760.04852
96.92981 65.785057 706.08563 706.08563
78.055222 100.11639 702.43762 702.43762
171.81889 136.73335 740.90088 740.90088
111.96098 92.537132 700.99878 700.99878
159.37802 72.594597 724.34821 724.34821
55.442039 109.50417 710.98169 710.98169
126.71297 87.290207 704.47577 704.47577
42.244328 33.662148 752.42297 752.42297
49.092194 46.17189 732.83655 732.83655
71.986595 127.59298 708.05505 708.05505
121.21162 154.53476 718.90729 718.90729
101.99767 139.07283 707.97107 707.97107
144.9655 34.277489 739.51318 739.51318
45.397511 99.703178 716.22363 716.22363
80.843575 122.53806 704.47479 704.47479
38.355682 171.15353 766.27832 766.27832
126.19553 134.40968 709.83478 709.83478
130.33395 125.08467 708.07281 708.07281
143.49594 185.72934 772.45758 772.45758
87.167892 67.389877 706.34149 706.34149
116.30052 118.97172 703.17871 703.17871
80.666176 146.24341 713.4682 713.4682
119.1077 51.757927 714.5155 714.5155
23.111992 137.40373 748.14258 748.14258
91.031937 197.93721 781.89264 781.89264
133.7446 172.85268 740.38635 740.38635
44.21236 168.35695 752.93549 752.93549
161.1918 69.535889 727.01025 727.01025
60.646732 82.670776 709.71704 709.71704
132.38091 21.596327 747.04395 747.04395
27.38151 70.674477 737.81824 737.81824
28.446711 93.959801 730.40369 730.40369
97.558983 158.60318 719.008 719.008
118.13634 143.2086 711.65924 711.65924
106.36306 113.24781 701.08588 701.08588
178.5553 67.99649 747.03925 747.03925
124.79339 139.21384 711.41351 711.41351
143.90834 31.594902 741.75226 741.75226
97.055923 88.386902 700.72028 700.72028
32.906284 86.604568 727.06854 727.06854
47.856827 139.54317 724.38635 724.38635
142.8515 143.13762 720.60925 720.60925
48.588203 169.58234 749.849 749.849
19.82267 71.358284 747.54767 747.54767
153.61577 51.616062 730.83105 730.83105
77.619637 142.21233 712.15216 712.15216
25.013199 141.15668 748.20129 748.20129
157.65228 74.523445 722.36523 722.36523
75.211075 83.368752 704.55939 704.55939
140.35951 126.31857 712.37329 712.37329
7.7574201 114.02478 764.01929 764.01929
111.17615 73.273514 704.28796 704.28796
67.874435 110.49441 705.88403 705.88403
68.296692 78.67617 707.58685 707.58685
57.057846 49.206776 725.32727 725.32727
94.528152 93.478241 700.36304 700.36304
45.24165 27.995869 757.37457 757.37457
52.756626 182.46419 768.89178 768.89178
144.88806 24.455725 752.27026 752.27026
34.605099 39.979755 753.94482 753.94482
95.670059 107.59879 700.38318 700.38318
31.610628 52.981834 744.21301 744.21301
9.2523499 78.53775 763.8858 763.8858
168.7525 78.009033 730.79382 730.79382
150.29457 34.000755 744.19177 744.19177
148.56287 128.42986 717.33569 717.33569
34.323223 95.924034 724.70093 724.70093
137.12495 137.99149 715.27466 715.27466
93.794243 183.68729 745.61316 745.61316
157.25278 79.88015 720.51849 720.51849
99.999008 45.553284 716.12177 716.12177
126.79816 163.25986 727.33606 727.33606
