# .PCD v0.7 - Point Cloud Data file format
VERSION 0.7
FIELDS x y z intensity
SIZE 4 4 4 4
TYPE F F F F
COUNT 1 1 1 1
WIDTH 1193
HEIGHT 1
VIEWPOINT 0 0 0 1 0 0 0
POINTS 1193
DATA ascii
162.74112 5.5477982 672.32904 672.32904
95.090981 22.334579 652.64978 652.64978
93.14563 49.699524 663.49579 663.49579
14.444588 -0.54154205 698.23151 698.23151
137.85367 27.163078 661.51685 661.51685
79.323395 81.653412 696.1001 696.1001
20.201626 -6.1954269 690.05139 690.05139
49.308266 47.354736 677.97308 677.97308
140.909 37.418762 666.77563 666.77563
98.887466 61.129944 670.86786 670.86786
19.566572 18.605278 693.57031 693.57031
124.17699 -20.49408 655.15558 655.15558
164.93661 0.12960815 673.95251 673.95251
62.33577 -23.097191 660.28979 660.28979
11.552769 10.438446 704.52338 704.52338
34.149246 -65.345535 712.66852 712.66852
49.056995 -39.639259 673.62238 673.62238
126.0617 89.761612 714.45227 714.45227
93.984161 71.536789 680.38464 680.38464
153.28481 76.161026 713.11871 713.11871
164.42751 6.7227249 673.81665 673.81665
104.12256 -95.929367 722.06146 722.06146
124.70917 -15.781097 654.39447 654.39447
15.265365 -29.975693 706.1651 706.1651
98.662827 -63.006992 672.35767 672.35767
94.781075 1.7920532 650.15234 650.15234
126.7117 93.445618 726.45422 726.45422
142.61371 64.350647 686.41492 686.41492
65.922012 34.665802 662.61023 662.61023
89.139648 -94.661499 719.64783 719.64783
141.24426 70.245636 691.99603 691.99603
113.04674 87.412323 703.21466 703.21466
48.967216 -16.071259 665.51703 665.51703
109.45918 -69.643456 678.86414 678.86414
143.3363 -21.190735 662.40479 662.40479
110.31619 34.128555 656.57184 656.57184
170.12169 -40.195282 691.11633 691.11633
66.589912 34.261246 662.19379 662.19379
102.8315 -12.96505 650.88446 650.88446
62.263741 25.513115 660.97723 660.97723
24.053127 62.283478 731.21594 731.21594
23.151577 51.98613 712.69366 712.69366
166.71669 -34.253128 683.85162 683.85162
89.869377 83.208527 695.46826 695.46826
34.420082 67.143829 715.48944 715.48944
151.84975 35.693756 672.29828 672.29828
168.64667 46.354721 693.97437 693.97437
150.3076 -79.200645 715.41095 715.41095
83.550133 -77.680161 689.21191 689.21191
91.374924 3.4207001 650.4314 650.4314
82.43911 16.254929 652.90527 652.90527
30.440018 -70.834831 738.00684 738.00684
102.03991 69.795578 678.41498 678.41498
150.29947 48.681091 678.5849 678.5849
123.92902 -59.606731 673.3551 673.3551
146.71669 64.401993 689.42004 689.42004
14.80484 13.048218 699.28973 699.28973
128.56227 55.486526 671.86267 671.86267
169.39935 -14.877823 679.55585 679.55585
23.867029 29.49205 692.25928 692.25928
81.41745 14.190331 652.77179 652.77179
117.97916 16.323921 652.99341 652.99341
111.61542 4.9120331 650.7984 650.7984
168.5647 -31.849327 684.54388 684.54388
104.29005 31.366409 655.14355 655.14355
46.696365 -54.814156 685.54749 685.54749
63.895573 75.896561 695.81348 695.81348
145.0916 32.533905 666.88385 666.88385
48.13636 -79.978378 719.7738 719.7738
100.56159 17.200722 651.49207 651.49207
175.92613 60.52684 726.08923 726.08923
176.36798 60.323456 726.99976 726.99976
8.5496855 32.545395 725.96594 725.96594
150.73817 51.865631 681.18433 681.18433
112.69849 7.157753 651.06812 651.06812
187.22673 -42.229122 725.33832 725.33832
166.28574 72.661774 731.93158 731.93158
144.28877 18.068245 662.18176 662.18176
21.549187 11.048981 688.98041 688.98041
43.09341 75.383179 717.15161 717.15161
181.14612 -7.0235977 691.98297 691.98297
55.162628 -38.782589 669.46729 669.46729
108.9586 99.258438 741.78381 741.78381
146.77574 -58.966946 684.15979 684.15979
149.67572 63.259598 690.5816 690.5816
35.985924 26.60775 677.92902 677.92902
9.5327778 -12.164566 709.16248 709.16248
130.44505 47.784348 667.60004 667.60004
40.04171 -36.866085 678.96552 678.96552
125.94382 -74.091774 688.05383 688.05383
101.52142 -72.521805 681.16492 681.16492
87.949486 -57.22229 668.88037 668.88037
170.93918 -62.073231 716.61517 716.61517
180.20726 -22.251297 694.57733 694.57733
135.77588 -21.383629 659.09991 659.09991
28.045183 28.948792 686.87732 686.87732
177.54729 -44.007961 704.7262 704.7262
149.49741 -30.982735 668.82068 668.82068
141.72452 31.500778 664.7547 664.7547
53.082996 -7.3199158 661.9931 661.9931
82.903763 -95.614815 726.21918 726.21918
62.633141 -80.326515 703.61713 703.61713
60.132454 -77.513443 700.9873 700.9873
165.97641 -32.552063 682.2691 682.2691
154.17014 -8.1110687 666.33514 666.33514
145.02151 -19.455429 662.85327 662.85327
38.936558 -56.635265 694.64929 694.64929
79.757263 14.380623 653.1319 653.1319
99.120178 95.708069 721.03119 721.03119
87.379333 -0.25853729 650.79993 650.79993
25.246672 2.0022659 683.60773 683.60773
99.563148 -62.345707 671.81543 671.81543
142.89468 -11.091629 660.35059 660.35059
33.221134 -31.191101 682.41528 682.41528
75.220673 -84.293091 702.24377 702.24377
106.10696 -36.646091 657.15729 657.15729
135.8772 -28.784966 661.20667 661.20667
135.7737 -36.439507 664.02087 664.02087
66.019073 -8.9033508 656.37292 656.37292
104.84 -91.573746 710.11487 710.11487
96.16803 98.19136 731.45886 731.45886
89.694389 63.50116 673.44025 673.44025
118.43086 94.011108 721.32568 721.32568
104.73624 -11.322769 650.75604 650.75604
117.28624 -41.442978 660.64862 660.64862
149.85164 28.054291 667.97699 667.97699
105.30616 44.26828 660.48932 660.48932
35.450157 -50.413807 692.6261 692.6261
112.27211 71.105331 680.76544 680.76544
123.39806 96.565598 738.70331 738.70331
183.01143 -27.943649 701.74799 701.74799
83.182045 2.6306992 651.45947 651.45947
178.43768 -40.911709 703.3764 703.3764
119.20618 7.3100128 652.13434 652.13434
106.07928 -63.285267 672.81183 672.81183
60.214943 -46.224411 670.75067 670.75067
70.926544 -82.427811 701.41614 701.41614
113.25453 -35.711334 657.53912 657.53912
104.99582 99.455322 740.85229 740.85229
110.52604 -75.925285 685.77734 685.77734
80.892632 -89.673225 710.07983 710.07983
177.54654 18.57885 689.65631 689.65631
120.41508 -23.591049 654.99109 654.99109
110.27962 -37.882553 658.02588 658.02588
129.25284 -25.529236 657.84509 657.84509
105.38449 -36.19669 656.93652 656.93652
111.62518 7.0860291 650.93109 650.93109
97.238472 -28.960976 654.32538 654.32538
139.27678 -40.335423 667.35382 667.35382
122.39166 83.744446 700.14539 700.14539
95.010368 88.072952 702.90161 702.90161
191.13518 -37.465942 732.95056 732.95056
188.99681 25.997032 712.53369 712.53369
57.324505 75.816803 700.69873 700.69873
42.206276 45.402435 682.18774 682.18774
92.939911 -44.955688 660.95428 660.95428
105.15931 14.400589 651.17688 651.17688
134.78009 47.935349 669.42365 669.42365
174.45139 60.638153 722.07141 722.07141
99.144791 98.320755 731.77094 731.77094
93.315361 -48.857792 663.00439 663.00439
48.308914 17.149353 666.13147 666.13147
127.7171 -25.539284 657.37439 657.37439
85.286392 -76.946838 687.84943 687.84943
110.73586 -33.639465 656.44183 656.44183
155.34087 -33.15889 673.59399 673.59399
47.814037 -13.561584 665.7818 665.7818
92.81778 76.688522 686.22473 686.22473
106.24638 91.569077 710.30005 710.30005
148.43477 -48.462879 677.16168 677.16168
47.406273 68.61647 699.74384 699.74384
73.18528 -82.364136 700.02881 700.02881
141.47145 40.44165 668.48566 668.48566
147.67882 -72.273064 699.96667 699.96667
146.6384 30.685593 667.03461 667.03461
34.152878 -63.20689 709.14606 709.14606
154.52426 -81.352257 729.77832 729.77832
122.03865 27.917412 656.53925 656.53925
107.90611 -34.766182 656.5719 656.5719
171.75781 42.192398 694.58685 694.58685
141.96043 68.407013 690.33594 690.33594
74.033447 -76.011864 690.43542 690.43542
99.94857 -68.441452 677.0907 677.0907
131.27402 -1.9778595 655.03674 655.03674
57.763035 -47.694088 672.9201 672.9201
123.79932 -39.591198 661.30878 661.30878
103.93108 43.964432 660.26886 660.26886
55.287888 -71.728455 696.55981 696.55981
66.995255 48.179596 668.82483 668.82483
60.092056 23.425842 661.35132 661.35132
73.629738 -70.533531 684.20007 684.20007
78.14119 -4.1941299 652.50842 652.50842
69.454956 26.806244 658.63025 658.63025
56.757885 76.506744 702.28375 702.28375
28.747726 -36.566032 690.11646 690.11646
104.55032 -65.886902 674.91199 674.91199
50.743252 83.708572 726.19562 726.19562
81.538063 79.499786 692.21643 692.21643
99.947617 36.023163 656.71375 656.71375
26.460886 23.84964 686.57135 686.57135
161.84743 39.69986 682.18542 682.18542
54.497261 -49.706547 676.11658 676.11658
149.90393 -65.140274 692.84808 692.84808
135.83392 -37.260597 664.39874 664.39874
49.953968 -43.344719 675.05585 675.05585
164.56929 -69.596924 718.58228 718.58228
146.12584 -21.107697 663.82068 663.82068
110.74689 -12.029381 651.30957 651.30957
69.60321 -95.056847 743.65717 743.65717
45.474148 -55.93824 687.56726 687.56726
112.48331 -19.534302 652.72424 652.72424
30.467239 -48.712009 697.15747 697.15747
121.49554 41.52301 661.60443 661.60443
87.313171 -66.094719 676.03693 676.03693
183.1391 -46.123421 719.00775 719.00775
150.22942 -23.754616 666.85718 666.85718
63.395386 -18.16198 658.72986 658.72986
68.420364 -15.099998 656.32654 656.32654
107.1793 -88.027588 703.1001 703.1001
129.88364 -52.896275 670.57111 670.57111
111.20094 -4.3437958 650.72424 650.72424
80.384583 -33.279076 657.76257 657.76257
111.46539 -78.896751 689.63568 689.63568
108.12305 94.610825 718.65027 718.65027
75.20269 -46.950115 665.2605 665.2605
117.75439 68.990372 679.82086 679.82086
94.677094 7.2885056 650.40808 650.40808
109.81473 -51.482346 664.83405 664.83405
72.850662 -22.556145 656.43646 656.43646
44.704906 -2.8798447 666.72839 666.72839
132.45811 83.882706 706.29462 706.29462
72.922333 -25.454483 657.16211 657.16211
160.3019 -26.839455 674.87793 674.87793
36.010277 13.454262 674.34088 674.34088
53.393257 63.726791 688.62646 688.62646
34.271732 57.064026 700.77106 700.77106
41.452522 74.115402 717.15033 717.15033
30.652493 -25.488976 682.61133 682.61133
48.487873 71.247177 702.35193 702.35193
2.4251153 16.169312 735.24548 735.24548
87.553383 18.16571 652.45471 652.45471
81.256767 8.9862442 652.18414 652.18414
138.37733 50.488007 672.68158 672.68158
141.84256 -71.253677 693.67847 693.67847
11.102814 -0.09274292 704.20392 704.20392
58.570408 -39.717491 668.10913 668.10913
71.585167 64.932388 679.45654 679.45654
51.930523 48.36499 676.85522 676.85522
112.11343 -37.464436 658.07788 658.07788
31.015593 -10.096344 678.31165 678.31165
37.993427 44.017487 685.05658 685.05658
11.838397 19.382393 706.9668 706.9668
128.59758 -8.736702 654.57544 654.57544
26.07868 -47.035526 701.79938 701.79938
112.76707 46.853058 662.58264 662.58264
82.231628 -96.376846 730.10553 730.10553
173.12546 31.412857 689.45331 689.45331
84.644753 -82.188599 695.14337 695.14337
118.43686 1.995697 651.73456 651.73456
75.756203 -95.2742 731.69519 731.69519
126.8327 39.039795 661.93243 661.93243
139.38469 53.831741 675.49506 675.49506
155.50471 32.790039 673.55371 673.55371
96.176826 47.13266 661.88702 661.88702
90.725945 -76.885872 686.73425 686.73425
100.14864 35.884567 656.6604 656.6604
13.5637 -30.895905 710.32367 710.32367
192.96642 -9.4157486 714.38275 714.38275
121.59992 6.8443298 652.60083 652.60083
69.174057 64.393875 679.97723 679.97723
61.991364 -76.922989 698.6366 698.6366
26.602831 -34.143433 691.28815 691.28815
148.73907 84.565933 728.24902 728.24902
188.76291 3.094162 704.04816 704.04816
152.47388 34.406921 672.13696 672.13696
96.84687 -81.902611 692.71106 692.71106
97.169029 -17.703415 651.62024 651.62024
177.16615 -22.361252 690.45709 690.45709
46.646832 5.9034729 665.6283 665.6283
164.60869 -14.54744 675.07275 675.07275
129.88823 -86.176819 709.00916 709.00916
168.17865 -4.9197311 677.0105 677.0105
89.143372 -87.211334 702.28925 702.28925
16.937586 -49.866642 725.22192 725.22192
120.15622 -38.599003 659.97864 659.97864
97.254967 20.861923 652.23883 652.23883
113.15496 -87.634598 703.6629 703.6629
68.833916 -51.852657 670.37604 670.37604
161.29599 -6.2312927 671.23468 671.23468
95.845634 52.73053 665.13403 665.13403
96.05896 -51.353672 664.28381 664.28381
170.65759 25.76429 684.0932 684.0932
7.0177412 0.44374084 713.2019 713.2019
139.78441 -17.103989 659.86316 659.86316
71.014877 -24.493423 657.4801 657.4801
195.03497 -8.2377701 719.99182 719.99182
37.724201 69.364471 713.802 713.802
38.391861 -49.375885 688.62854 688.62854
93.221077 -20.043549 652.2641 652.2641
124.47841 -23.287949 655.88049 655.88049
145.8979 42.548431 672.00635 672.00635
104.41026 -91.655792 710.25372 710.25372
129.19864 80.420532 698.23151 698.23151
111.55569 81.624298 693.39667 693.39667
145.95287 31.475113 666.94788 666.94788
129.73396 59.093277 675.00751 675.00751
68.924568 42.54213 665.00305 665.00305
58.056534 21.302177 661.75623 661.75623
183.26353 -53.185741 734.5578 734.5578
9.2812996 -38.389694 732.78522 732.78522
24.694242 27.886604 690.40656 690.40656
81.145134 -96.16787 730.09436 730.09436
57.180698 21.28154 662.17285 662.17285
110.02742 66.527908 676.01697 676.01697
54.025787 51.042374 677.32916 677.32916
69.240097 -92.20211 726.49255 726.49255
111.66657 40.544815 659.33575 659.33575
192.31172 4.4317932 711.80438 711.80438
80.469719 41.249924 661.0224 661.0224
38.118587 8.7938156 671.94 671.94
21.751625 -44.817753 706.77313 706.77313
48.822151 -47.744022 678.57635 678.57635
154.14482 26.868584 670.33557 670.33557
55.424976 63.814728 687.22461 687.22461
49.246807 -46.391243 677.39172 677.39172
111.02876 -18.028595 652.25885 652.25885
84.006943 74.819702 685.60876 685.60876
51.46796 -74.464012 704.17694 704.17694
74.920212 -84.319633 702.44788 702.44788
168.5889 -66.125809 719.62006 719.62006
141.88672 77.227921 702.23651 702.23651
98.568657 -28.871094 654.26904 654.26904
110.55241 13.01725 651.414 651.414
75.422241 -6.9584885 653.31744 653.31744
60.2645 85.201614 715.91516 715.91516
77.082809 76.030273 689.22009 689.22009
94.891914 -96.589134 724.61407 724.61407
79.349083 36.993271 659.41833 659.41833
90.272453 66.334686 675.80371 675.80371
82.734741 -20.674507 653.69592 653.69592
168.5612 -65.176384 717.57471 717.57471
94.004974 44.842697 660.81934 660.81934
48.994099 -72.303848 703.41083 703.41083
133.36214 -68.603027 685.34253 685.34253
137.69666 -80.373444 703.96661 703.96661
132.68555 41.108414 664.90149 664.90149
183.448 34.097534 706.71271 706.71271
34.758427 70.374771 721.87659 721.87659
28.576502 50.721848 701.77161 701.77161
69.45285 -54.740231 672.08734 672.08734
149.55357 -31.179909 668.93054 668.93054
100.356 25.472137 653.29919 653.29919
48.938583 9.7054825 664.56854 664.56854
153.46989 -43.699749 677.67224 677.67224
145.67107 -68.493904 693.23083 693.23083
148.17775 8.5886154 662.79254 662.79254
152.43495 60.97377 690.56287 690.56287
134.76871 62.803268 680.38043 680.38043
5.8275981 18.125854 721.66254 721.66254
68.618515 56.158066 673.43976 673.43976
147.90125 58.951218 684.95984 684.95984
151.7233 -71.575211 703.07782 703.07782
79.488586 -61.856468 674.15106 674.15106
160.24852 -67.447891 707.328 707.328
184.21887 29.551453 704.90131 704.90131
124.0379 39.336472 661.25983 661.25983
87.96637 -62.830059 673.13928 673.13928
8.367959 -21.506004 716.2204 716.2204
43.485142 10.831924 668.21527 668.21527
10.136253 28.612762 716.74615 716.74615
177.63162 -47.100903 708.10925 708.10925
62.243874 -25.039047 660.85114 660.85114
58.721085 -16.126648 660.35638 660.35638
172.36456 -6.6157608 681.30066 681.30066
154.375 -48.950226 681.82935 681.82935
45.473587 16.28331 667.77026 667.77026
110.66962 -45.798759 661.74677 661.74677
86.28846 61.923874 672.68616 672.68616
8.5934572 32.655029 725.94812 725.94812
31.16046 -11.175873 678.33258 678.33258
59.262421 -33.09494 664.88141 664.88141
101.93022 33.050369 655.63928 655.63928
119.62132 -81.813591 695.94873 695.94873
190.08305 -21.040543 712.02185 712.02185
101.32455 54.660706 666.27155 666.27155
91.254875 -72.102798 681.26349 681.26349
139.30318 -65.448792 685.41119 685.41119
146.21399 65.785522 690.53125 690.53125
137.91165 88.3797 722.58221 722.58221
148.7968 26.95813 666.98114 666.98114
124.8859 23.029007 655.92365 655.92365
37.372887 60.970551 701.41565 701.41565
173.1198 -66.465561 734.64343 734.64343
136.20558 47.578171 669.84094 669.84094
88.266502 43.959595 660.95013 660.95013
152.47696 62.831329 692.56836 692.56836
111.16011 -65.984604 675.6933 675.6933
163.40338 45.030731 687.13312 687.13312
114.27938 -34.453163 657.21484 657.21484
15.920841 27.791931 703.54248 703.54248
164.79604 59.462509 702.40082 702.40082
110.93049 -26.631317 654.23309 654.23309
144.87204 0.013519287 660.63281 660.63281
96.143845 39.130371 658.05469 658.05469
38.490257 75.226959 726.38947 726.38947
48.198311 61.591629 690.64465 690.64465
20.506868 -39.950138 704.34009 704.34009
168.11563 40.852661 689.24377 689.24377
88.634094 19.957268 652.6731 652.6731
156.99905 70.551941 707.88666 707.88666
69.240326 83.557022 704.48004 704.48004
90.334145 -5.6594696 650.62927 650.62927
91.623993 63.637512 673.31812 673.31812
13.881577 -17.012978 702.10242 702.10242
186.66478 36.109421 715.57147 715.57147
46.858742 24.556839 668.92615 668.92615
31.118 17.609634 679.6781 679.6781
135.70013 -34.352264 663.13562 663.13562
163.80925 -61.690712 703.92792 703.92792
130.11185 75.483322 691.7287 691.7287
109.83035 -8.8215027 650.8761 650.8761
164.38708 -13.086769 674.61407 674.61407
142.76358 89.583862 737.91663 737.91663
180.71761 -27.625313 697.83191 697.83191
107.46352 -72.845917 681.8988 681.8988
73.883888 -49.126465 666.90643 666.90643
164.6649 -26.65731 678.53088 678.53088
95.990112 51.453735 664.34705 664.34705
51.577579 -35.713615 670.12628 670.12628
131.90076 61.798843 678.14429 678.14429
128.67152 -5.3139572 654.34589 654.34589
108.07221 -61.386196 671.47247 671.47247
137.75301 -60.05172 679.51239 679.51239
121.85264 2.1134262 652.43976 652.43976
170.84964 14.471886 680.92834 680.92834
87.99379 -46.646629 662.36475 662.36475
138.69891 -83.869576 711.68176 711.68176
94.200058 19.600166 652.11133 652.11133
94.709518 -4.0700302 650.22302 650.22302
41.590588 17.095078 670.65204 670.65204
166.79396 60.854065 707.159 707.159
174.08702 3.5754929 682.93042 682.93042
143.35616 42.500473 670.53961 670.53961
145.21117 -74.807327 701.42206 701.42206
88.80793 -69.282806 678.76355 678.76355
3.5841444 -15.842514 728.71625 728.71625
120.091 -37.045891 659.31396 659.31396
84.618202 3.9789352 651.2702 651.2702
80.629631 97.77858 741.99133 741.99133
51.696808 -15.996536 663.91333 663.91333
54.781956 65.528564 689.49103 689.49103
97.452263 -56.739044 667.69452 667.69452
122.07561 -51.572521 667.21753 667.21753
47.114712 81.415649 726.02838 726.02838
44.172253 -45.605606 680.69348 680.69348
168.64867 18.675163 679.72485 679.72485
28.525915 63.471863 720.62689 720.62689
100.75567 48.791534 662.71417 662.71417
1.8939366 13.216721 735.83954 735.83954
17.21426 -1.5782089 693.92834 693.92834
29.838081 -19.329895 681.41675 681.41675
32.019543 -21.924042 680.01434 680.01434
131.25264 -2.9197311 655.05396 655.05396
146.92818 -24.166252 665.06628 665.06628
53.38829 10.837257 662.19397 662.19397
163.02364 17.772202 674.42108 674.42108
84.491074 -23.022438 653.93005 653.93005
76.540123 -47.745724 665.32428 665.32428
81.238586 -16.839806 653.22998 653.22998
104.14988 19.811058 652.06995 652.06995
167.86906 -28.557167 682.33704 682.33704
55.976139 -69.877586 693.61719 693.61719
13.572582 -34.125206 713.04364 713.04364
41.455383 24.474129 672.7113 672.7113
67.530464 41.704239 665.10901 665.10901
16.648508 45.968842 719.35046 719.35046
135.54916 -79.610306 701.02594 701.02594
96.044296 9.1913681 650.50189 650.50189
184.07642 -35.526344 709.14618 709.14618
71.663765 -36.251163 661.21423 661.21423
47.256069 -41.526867 675.88123 675.88123
57.088257 -15.009422 660.93091 660.93091
131.18086 -66.278336 681.91962 681.91962
53.686016 -52.412537 678.53015 678.53015
46.7337 17.936661 667.28979 667.28979
73.510231 84.205872 703.01422 703.01422
81.83432 -18.150887 653.35345 653.35345
145.06906 51.775726 677.28101 677.28101
134.80362 -31.668411 661.7627 661.7627
105.37328 -35.080894 656.50958 656.50958
76.313766 -12.538841 653.6582 653.6582
100.45518 -50.538521 663.71179 663.71179
141.85426 -18.74144 661.13507 661.13507
94.018539 -21.192566 652.45465 652.45465
117.76984 -86.847076 703.72021 703.72021
117.45156 -78.543648 690.617 690.617
71.639175 -70.191185 684.66345 684.66345
86.449585 -5.8361206 651.09436 651.09436
71.808769 -11.907455 654.79773 654.79773
71.596741 45.58284 665.64685 665.64685
110.65138 -93.25708 715.50848 715.50848
122.63493 43.139404 662.66931 662.66931
47.416248 -41.936356 675.99805 675.99805
111.54092 -38.730167 658.52991 658.52991
94.337425 81.66452 692.56445 692.56445
97.61187 73.821228 682.58545 682.58545
60.949905 -86.456047 718.37024 718.37024
31.535513 -49.139069 696.16724 696.16724
45.596287 44.300888 678.74225 678.74225
103.45885 47.500168 662.06952 662.06952
53.43367 -63.564156 688.42749 688.42749
59.73748 -49.469822 672.98267 672.98267
130.75597 5.2397842 654.99152 654.99152
158.82095 8.3332214 669.55963 669.55963
25.397514 6.3191681 683.70868 683.70868
128.66162 17.2173 655.75525 655.75525
76.113602 -72.870293 685.81775 685.81775
94.851181 48.747055 662.83801 662.83801
130.19421 -12.806976 655.53156 655.53156
142.13936 -23.720322 662.4693 662.4693
90.841377 -33.68219 656.28967 656.28967
16.469742 -7.609848 695.55017 695.55017
97.826012 -54.367279 666.09845 666.09845
90.060402 98.052063 733.05902 733.05902
158.15353 -21.533684 671.54956 671.54956
128.44336 -77.276932 693.26154 693.26154
110.09319 51.085999 664.62817 664.62817
89.973228 71.99234 681.32275 681.32275
186.89308 -10.190811 701.56714 701.56714
81.437943 -94.960655 724.74286 724.74286
65.016205 9.4719849 656.79907 656.79907
120.43099 -37.104343 659.41388 659.41388
98.382629 -7.0159073 650.25952 650.25952
86.895409 9.6813354 651.33624 651.33624
82.904854 61.506332 673.02777 673.02777
162.13931 76.203629 731.78699 731.78699
130.49374 -3.1482315 654.81482 654.81482
9.1590157 -18.611954 712.56323 712.56323
111.08978 -76.42572 686.46948 686.46948
18.255024 -57.524021 747.04279 747.04279
107.5112 67.326233 676.44214 676.44214
120.02008 -60.620762 673.0304 673.0304
97.970406 86.974854 700.69226 700.69226
162.19164 68.045517 711.24426 711.24426
67.772827 15.866493 656.67444 656.67444
145.73764 -75.404854 702.86005 702.86005
141.85027 70.841141 693.16614 693.16614
50.059517 53.601776 681.93536 681.93536
62.499165 -4.8994904 657.42743 657.42743
44.98922 38.69545 675.99677 675.99677
108.04181 -44.697006 660.90729 660.90729
52.544762 -21.344643 664.60443 664.60443
101.84125 45.987244 661.22058 661.22058
101.73329 -13.276276 650.90039 650.90039
71.003929 69.292038 683.98608 683.98608
30.92662 2.7129288 677.73999 677.73999
93.560371 90.78714 708.57263 708.57263
159.95457 -26.78965 674.58276 674.58276
115.54569 -69.569626 679.86871 679.86871
73.171761 -57.901608 673.00879 673.00879
129.46306 68.951767 683.83667 683.83667
95.28743 56.275543 667.47211 667.47211
88.484833 -65.985863 675.74866 675.74866
112.27915 7.3029633 651.02582 651.02582
111.32384 -33.914757 656.61072 656.61072
155.76833 60.200256 692.8526 692.8526
93.53949 -37.537827 657.53827 657.53827
138.40292 -60.44334 680.2016 680.2016
141.92517 9.7872772 659.74207 659.74207
62.601341 32.466522 663.125 663.125
86.134277 58.320206 669.95941 669.95941
33.564945 61.551163 707.59912 707.59912
29.237675 -53.321453 703.63715 703.63715
85.823975 -39.086967 659.05359 659.05359
44.838379 45.080887 679.82233 679.82233
98.027321 -58.431644 668.8714 668.8714
59.782166 -27.296288 662.60754 662.60754
146.17873 -61.25526 685.84924 685.84924
52.462513 -10.322212 662.62927 662.62927
111.85339 31.120773 655.70795 655.70795
189.03972 22.190727 710.25708 710.25708
74.321762 65.39035 678.83307 678.83307
150.7666 58.841904 687.06842 687.06842
156.14557 -30.165596 672.94348 672.94348
69.216774 -34.013641 661.14355 661.14355
22.688639 -48.797668 709.48163 709.48163
102.93166 84.664383 696.86481 696.86481
41.315536 20.473686 671.66125 671.66125
106.50347 60.852936 670.91382 670.91382
59.580429 -46.507965 671.2392 671.2392
78.773689 -11.245361 652.92792 652.92792
147.39429 -57.834702 683.60022 683.60022
35.318077 -11.479912 674.60461 674.60461
142.97273 -7.8548279 660.04645 660.04645
157.36282 -63.293396 698.00525 698.00525
39.589588 30.714355 676.46625 676.46625
72.821381 9.098671 654.19531 654.19531
67.342308 67.107422 683.44122 683.44122
55.946857 33.411026 666.67517 666.67517
123.94583 -24.903625 656.15753 656.15753
47.021996 -72.931419 706.70636 706.70636
104.81757 30.326019 654.83105 654.83105
48.68232 -64.360916 693.21826 693.21826
74.880783 7.60466 653.50549 653.50549
153.02974 70.856552 703.44684 703.44684
12.542288 29.933121 711.85345 711.85345
172.82632 2.2163162 681.5061 681.5061
108.78458 83.473114 695.63947 695.63947
30.971474 42.096024 691.15283 691.15283
113.39972 55.460052 667.87433 667.87433
96.425552 -39.554947 658.2251 658.2251
51.883488 76.904099 707.922 707.922
162.64084 -61.796535 702.48883 702.48883
9.9907236 -9.2351456 707.42017 707.42017
90.174225 -1.4563522 650.49457 650.49457
86.145332 16.177177 652.29462 652.29462
184.7798 -41.068604 716.44775 716.44775
179.29716 39.020081 703.20905 703.20905
52.521919 -16.062096 663.46771 663.46771
42.067535 12.282707 669.42108 669.42108
79.359985 29.65004 656.75372 656.75372
76.176636 -62.031296 675.27002 675.27002
175.71375 21.040939 688.15576 688.15576
185.42757 -20.742226 702.33563 702.33563
183.49123 -42.986172 715.62842 715.62842
148.82213 -1.4297104 662.73975 662.73975
148.95699 -69.436104 697.25684 697.25684
15.882197 41.018875 714.763 714.763
171.70924 -57.871574 711.15845 711.15845
106.73911 67.74295 676.75061 676.75061
68.849113 26.809456 658.836 658.836
148.18513 63.125748 689.22717 689.22717
127.10168 30.879898 658.8302 658.8302
115.61414 94.035019 719.77399 719.77399
41.117233 35.858566 677.56396 677.56396
157.22382 66.34169 701.78992 701.78992
155.7825 31.691483 673.29303 673.29303
79.071632 82.872086 698.09412 698.09412
175.72261 -43.677944 701.43744 701.43744
114.81065 5.5263367 651.25739 651.25739
67.292747 -13.016899 656.40088 656.40088
48.62138 75.402039 709.07605 709.07605
92.378632 47.10881 662.12122 662.12122
26.886627 20.290733 684.86383 684.86383
58.836102 67.811798 689.11407 689.11407
82.245132 60.847504 672.65436 672.65436
89.111366 -77.655426 687.94299 687.94299
61.017715 -35.800224 665.15466 665.15466
51.331146 -34.814575 669.87952 669.87952
173.58546 32.928162 690.83148 690.83148
33.438526 60.593643 706.4342 706.4342
51.147026 -31.606361 668.6709 668.6709
59.487949 13.879272 659.6333 659.6333
90.928291 42.170761 659.78174 659.78174
146.63658 50.144302 677.12628 677.12628
124.10189 87.997375 709.06641 709.06641
38.880344 58.507721 696.69678 696.69678
127.27009 3.1494141 653.84167 653.84167
34.759979 -42.904186 687.52625 687.52625
142.82993 -8.7108994 660.05713 660.05713
9.0988092 39.934723 738.07562 738.07562
192.54138 -35.43576 736.56873 736.56873
62.044399 -48.774052 671.38409 671.38409
81.073463 42.25882 661.36603 661.36603
99.403328 30.832962 654.8739 654.8739
135.78238 90.825775 728.3136 728.3136
154.87965 30.52916 672.17847 672.17847
159.71356 23.525688 673.31342 673.31342
103.43115 48.782501 662.77332 662.77332
140.92206 52.044205 675.05481 675.05481
181.09879 37.554688 705.13763 705.13763
139.88348 -84.553688 714.50378 714.50378
130.61433 -65.101852 680.54132 680.54132
51.011658 43.843063 674.64795 674.64795
18.22509 -21.489174 696.60449 696.60449
7.1025739 -8.752533 714.03528 714.03528
89.238037 -26.099159 654.06763 654.06763
69.497772 -36.559612 662.0625 662.0625
65.363106 11.799385 656.93518 656.93518
128.18921 76.221924 691.72833 691.72833
10.025698 18.155731 710.31378 710.31378
108.2859 76.308899 685.90399 685.90399
174.24123 -46.884666 702.14532 702.14532
163.18257 49.670929 690.49573 690.49573
75.087891 -14.300407 654.21436 654.21436
54.107319 77.551559 706.64545 706.64545
87.572754 -92.959213 715.29913 715.29913
56.552582 -67.290329 690.13068 690.13068
154.3118 -79.671188 723.49097 723.49097
31.15089 66.466049 720.98163 720.98163
118.50603 -30.295265 656.51349 656.51349
71.208237 41.944595 663.90887 663.90887
51.569443 -19.053558 664.61005 664.61005
192.91325 30.221497 728.69769 728.69769
68.22081 68.694824 684.6463 684.6463
48.832775 80.129501 718.99713 718.99713
86.176865 54.226807 667.12433 667.12433
66.764648 -26.140717 659.37952 659.37952
96.391365 -5.8594894 650.23706 650.23706
143.43156 -42.73727 670.70801 670.70801
126.48396 -11.570908 654.26746 654.26746
122.62435 10.706581 653.18311 653.18311
182.13759 12.248482 694.29193 694.29193
174.18828 -29.701462 689.88409 689.88409
28.312706 -41.473324 693.9563 693.9563
177.46783 -60.165077 730.53467 730.53467
33.613483 -71.018021 726.56348 726.56348
56.12529 13.579437 661.1709 661.1709
69.023529 -30.522957 659.95105 659.95105
50.588028 56.829803 684.20618 684.20618
189.53227 -19.719902 710.06134 710.06134
100.72619 -79.261108 689.03156 689.03156
80.531525 -92.937172 718.63666 718.63666
63.027798 -53.363403 673.93817 673.93817
102.10692 -81.045975 691.4585 691.4585
189.99512 -33.03392 721.54584 721.54584
95.450569 -50.790825 663.97913 663.97913
140.25403 37.768997 666.61462 666.61462
116.28039 -68.812622 679.29095 679.29095
23.513563 39.991608 699.49756 699.49756
131.99913 9.0489502 655.6911 655.6911
93.796387 -12.563911 650.98657 650.98657
102.21449 -8.3358612 650.37268 650.37268
174.04123 40.084763 696.04529 696.04529
75.148895 -66.657829 679.72089 679.72089
51.147343 54.206955 681.62585 681.62585
113.18578 -24.961472 654.06738 654.06738
68.945282 -26.657822 658.75873 658.75873
164.48126 -20.459412 676.35504 676.35504
144.71367 -19.563858 662.71918 662.71918
44.136055 -11.195198 667.81799 667.81799
74.720261 27.902313 657.35876 657.35876
137.89328 85.95192 715.70178 715.70178
150.23436 -1.5478668 663.54706 663.54706
74.683121 -81.869843 698.4599 698.4599
57.339321 89.338104 735.90143 735.90143
173.61801 -25.989441 687.5105 687.5105
76.055618 -16.769806 654.36823 654.36823
133.80656 42.17366 665.86621 665.86621
148.20407 32.97081 668.82556 668.82556
159.21721 -26.127747 673.77228 673.77228
179.29161 -22.740105 693.46924 693.46924
82.587585 -0.78314972 651.53076 651.53076
185.65524 12.317001 699.88544 699.88544
96.15284 51.339676 664.27112 664.27112
127.2269 -63.475113 677.68396 677.68396
88.787025 -75.319283 685.18274 685.18274
51.542343 -46.065777 675.63739 675.63739
147.79227 39.303558 671.44348 671.44348
165.3694 57.210129 700.46375 700.46375
102.8634 12.258591 650.79553 650.79553
108.22518 89.118927 705.38873 705.38873
94.977615 -10.186501 650.64703 650.64703
100.46868 -3.541153 650.06384 650.06384
181.91159 -24.557381 698.15961 698.15961
179.91524 -53.457413 722.50708 722.50708
102.0017 -94.625137 717.71881 717.71881
156.67397 33.250381 674.6178 674.6178
152.20071 4.496788 664.82452 664.82452
30.162045 -0.64398193 678.43011 678.43011
37.236423 19.256683 674.56848 674.56848
159.60745 -36.738194 678.60492 678.60492
122.07526 -31.679665 657.75531 657.75531
5.5112157 -21.355423 725.18439 725.18439
110.89903 75.336273 685.14899 685.14899
195.37236 -3.6851196 720.1582 720.1582
122.422 -55.576771 669.94702 669.94702
92.130028 0.84760284 650.31378 650.31378
179.7205 -14.945374 691.5083 691.5083
193.15182 -30.814102 730.68091 730.68091
131.98631 24.877213 658.57788 658.57788
124.13936 23.452499 655.8338 655.8338
118.65314 42.820297 661.57782 661.57782
157.1244 2.054718 667.94769 667.94769
156.15683 -58.279545 691.2641 691.2641
135.61176 -39.989067 665.5448 665.5448
131.62596 -4.7909927 655.25378 655.25378
188.35489 -9.8609543 704.216 704.216
93.333832 -96.295235 723.86975 723.86975
83.34639 -57.418858 669.83936 669.83936
80.905937 66.905426 678.17328 678.17328
81.894646 -3.5248184 651.71588 651.71588
48.364433 -12.27977 665.24756 665.24756
21.047709 -24.058891 693.54022 693.54022
121.36423 32.749359 657.96167 657.96167
111.39624 56.544876 668.31274 668.31274
86.391296 -4.2899933 651.02325 651.02325
98.898216 53.795013 665.70953 665.70953
27.390211 -51.184025 704.08685 704.08685
146.62621 -7.771553 661.87738 661.87738
65.57766 82.212509 704.6546 704.6546
8.3440409 28.083618 721.53082 721.53082
110.72477 -71.372284 680.78314 680.78314
41.655964 -20.266029 671.35358 671.35358
93.769455 39.2966 658.25604 658.25604
53.421658 17.910339 663.34161 663.34161
61.132019 21.353424 660.37128 660.37128
101.48917 23.216881 652.74384 652.74384
174.8232 -3.5528412 683.75146 683.75146
169.43172 -29.074928 684.16772 684.16772
177.67746 -33.322128 696.55988 696.55988
2.7401314 -7.6610794 728.0495 728.0495
12.866898 22.819183 706.55914 706.55914
74.206284 95.439178 734.96509 734.96509
175.66113 -5.0634003 684.80988 684.80988
87.272202 6.7413177 651.04266 651.04266
70.073624 -62.18491 677.62976 677.62976
36.220188 -30.277946 679.18066 679.18066
175.83377 -36.895298 696.26013 696.26013
82.337143 -36.995167 658.78937 658.78937
105.45838 -7.0477219 650.39813 650.39813
139.96489 -51.904114 674.4436 674.4436
38.640369 6.8542099 671.33606 671.33606
119.56401 -44.834595 662.78125 662.78125
132.4709 3.2546082 655.47461 655.47461
103.7624 21.179596 652.34106 652.34106
106.17339 -44.720505 660.77014 660.77014
86.449776 -54.755192 667.42725 667.42725
71.564743 59.404022 674.74976 674.74976
100.87441 99.634918 741.50775 741.50775
26.954222 -65.739769 731.4906 731.4906
115.54368 15.261688 652.40149 652.40149
15.188384 -11.057487 698.18567 698.18567
64.443436 3.4571304 656.59882 656.59882
125.45565 37.140167 660.71045 660.71045
92.961967 -45.053268 661.00183 661.00183
114.48409 -55.396465 668.01563 668.01563
106.00813 -53.801571 665.9209 665.9209
122.78516 42.663132 662.47461 662.47461
45.405888 -9.5235977 666.76068 666.76068
63.529377 -26.807251 660.83014 660.83014
177.23985 9.8844299 687.26001 687.26001
181.07341 -44.567551 712.04163 712.04163
66.04084 -57.806622 675.80316 675.80316
91.516235 52.529495 665.33197 665.33197
77.379623 -96.903992 740.10382 740.10382
137.71939 -16.640686 658.8938 658.8938
156.25558 -37.24221 676.18719 676.18719
122.77856 5.6539764 652.79315 652.79315
91.105721 -53.881222 666.22827 666.22827
188.45197 -36.701836 721.20374 721.20374
138.68542 52.916473 674.47992 674.47992
49.109344 24.817787 667.57294 667.57294
108.14077 61.447968 671.52789 671.52789
149.73068 26.598656 667.42053 667.42053
159.94211 -23.834839 673.58765 673.58765
105.94826 40.113907 658.59161 658.59161
177.67799 44.046509 704.98853 704.98853
133.08185 39.741745 664.40686 664.40686
61.409115 55.251968 676.12195 676.12195
38.368561 -68.826004 711.73059 711.73059
161.85858 -43.743492 684.73114 684.73114
151.86279 44.633942 677.07495 677.07495
75.830933 92.014008 719.18964 719.18964
163.37924 -31.807297 679.49207 679.49207
36.803665 -13.174759 673.62823 673.62823
152.91159 20.774307 667.72736 667.72736
127.12673 33.818466 659.88647 659.88647
80.010643 -78.003311 690.7049 690.7049
43.109531 -54.905018 688.77161 688.77161
91.689232 47.561264 662.42798 662.42798
27.453215 9.8221664 681.87885 681.87885
30.070999 18.21711 680.8764 680.8764
26.25938 36.620712 693.24396 693.24396
161.88542 9.2681503 671.99811 671.99811
67.283699 93.946365 739.81549 739.81549
112.41312 -46.938824 662.5777 662.5777
147.12352 87.712448 740.73175 740.73175
168.16223 20.412811 679.73462 679.73462
146.18558 46.532104 674.49072 674.49072
72.300377 15.504089 655.172 655.172
116.35619 -11.301384 651.99615 651.99615
108.24989 -33.377739 656.0965 656.0965
138.55196 -25.971962 661.46069 661.46069
64.053787 -11.928154 657.44952 657.44952
4.5168362 -25.734642 735.14423 735.14423
182.46326 -40.743679 710.76019 710.76019
146.26996 84.97171 724.72351 724.72351
63.471039 -58.695251 677.74695 677.74695
107.84984 8.9116821 650.7077 650.7077
90.65036 98.192993 733.54645 733.54645
146.92088 28.343948 666.36359 666.36359
115.10527 -29.766197 655.73547 655.73547
41.342148 28.652863 674.24866 674.24866
50.221382 9.5385818 663.79614 663.79614
196.30672 -25.355911 740.93939 740.93939
35.665051 -33.935196 681.37482 681.37482
124.14877 62.978119 676.17188 676.17188
136.07698 65.939743 684.04242 684.04242
160.81033 65.025314 704.46088 704.46088
100.75475 -35.897942 656.66852 656.66852
79.667648 27.312614 655.97546 655.97546
74.536964 -60.396328 674.47571 674.47571
114.96488 -55.938591 668.47131 668.47131
167.45284 -7.5625458 676.56348 676.56348
47.153725 -50.740685 681.9364 681.9364
154.62463 17.428543 668.0708 668.0708
193.50371 11.580063 716.48944 716.48944
105.05098 -6.7764893 650.35779 650.35779
181.04297 -46.492271 714.35583 714.35583
142.62669 50.688416 675.07568 675.07568
146.47552 -30.112328 666.7337 666.7337
41.436344 -32.835159 675.89093 675.89093
87.856583 -81.862961 693.86627 693.86627
182.89423 25.30304 700.11713 700.11713
71.125206 78.872925 695.72931 695.72931
138.10684 -31.141434 662.94781 662.94781
46.117123 -43.986015 678.15387 678.15387
102.87099 -47.796642 662.20911 662.20911
154.02394 28.754425 670.914 670.914
102.57944 79.664749 689.61066 689.61066
88.360397 84.781784 698.2644 698.2644
80.712608 -11.32666 652.53357 652.53357
27.895948 -58.718403 713.21472 713.21472
133.866 -48.646526 669.46051 669.46051
34.789501 -66.63855 713.849 713.849
129.98567 55.834686 672.64789 672.64789
172.1571 -2.2241745 680.8017 680.8017
51.715694 -52.74659 680.09705 680.09705
57.864796 87.485809 726.10736 726.10736
84.987404 -94.090553 719.64227 719.64227
174.67004 55.541443 713.40039 713.40039
187.74303 -4.3536682 702.22754 702.22754
102.64033 -65.695892 674.65363 674.65363
118.24337 73.564865 684.76666 684.76666
161.61212 -54.894073 693.51471 693.51471
109.67163 -77.393494 687.41638 687.41638
75.618073 78.908508 693.61768 693.61768
120.3661 -40.659405 660.93805 660.93805
77.80999 -83.601807 699.81689 699.81689
30.316523 -26.184677 683.22742 683.22742
57.906742 13.423622 660.28955 660.28955
145.6427 -42.514359 671.83813 671.83813
151.82982 -51.307564 681.58069 681.58069
2.5093117 15.515045 734.03601 734.03601
147.15965 -8.5041962 662.22961 662.22961
38.323185 4.1321487 671.39404 671.39404
44.137188 -47.249496 681.83234 681.83234
24.743858 48.706039 705.6803 705.6803
164.55547 54.182953 696.1781 696.1781
102.76468 68.425888 677.12854 677.12854
118.60533 51.671356 666.43018 666.43018
116.51372 -72.44693 683.0766 683.0766
119.7536 54.352676 668.41827 668.41827
94.052925 8.2012177 650.51447 650.51447
168.31389 64.860626 716.43945 716.43945
163.53001 30.011765 678.84363 678.84363
69.666107 48.620682 668.0495 668.0495
56.376171 -51.074467 675.9165 675.9165
91.36615 -72.739342 681.92322 681.92322
49.032898 -44.612492 676.43317 676.43317
140.12268 -91.338509 743.11182 743.11182
182.46501 -54.136173 733.60498 733.60498
59.591209 45.836609 670.84106 670.84106
144.5764 -0.95783234 660.49005 660.49005
33.089821 -44.206028 690.26013 690.26013
96.580086 88.957108 704.44855 704.44855
168.91206 -21.778404 680.88538 680.88538
1.5419822 8.1108246 734.50049 734.50049
124.03912 34.682724 659.34003 659.34003
53.59478 54.872681 680.46191 680.46191
88.372017 -68.671349 678.24323 678.24323
88.856049 -2.1262436 650.64563 650.64563
82.935158 71.72197 682.43707 682.43707
140.17873 83.87149 713.24072 713.24072
56.928272 -47.368694 673.18182 673.18182
57.284874 32.696365 665.70074 665.70074
174.51886 31.32016 691.12738 691.12738
125.4265 -22.461937 655.93109 655.93109
38.53582 -66.678001 707.85504 707.85504
104.99129 81.731781 692.5979 692.5979
32.040401 52.756409 699.02692 699.02692
82.76976 -62.066582 673.50909 673.50909
133.21153 -34.09201 662.05267 662.05267
145.84906 -19.231949 663.23596 663.23596
124.60666 -51.162357 667.67792 667.67792
166.70218 66.448883 716.30481 716.30481
88.695602 -4.5621109 650.74579 650.74579
65.002823 36.738724 663.82886 663.82886
25.937288 -49.906105 705.01007 705.01007
159.08536 -8.5465164 669.77606 669.77606
71.173325 88.857834 714.31659 714.31659
140.03387 -47.670723 671.73895 671.73895
165.10477 -64.656708 710.23975 710.23975
156.17468 -12.394165 668.20276 668.20276
13.39118 -24.261948 706.29333 706.29333
9.6801796 -37.507534 729.13098 729.13098
46.270935 40.213959 675.86481 675.86481
26.636553 -67.940598 748.62927 748.62927
156.72365 74.739761 715.41101 715.41101
186.24602 16.844109 702.27264 702.27264
8.4875584 -3.4816818 709.8335 709.8335
168.76076 -49.766541 697.12988 697.12988
131.23416 -49.092693 668.67145 668.67145
30.717176 69.424194 730.50201 730.50201
92.534561 -5.3925705 650.42499 650.42499
122.78978 2.9714432 652.67682 652.67682
126.4687 60.782272 675.13397 675.13397
143.1201 -8.3828888 660.16467 660.16467
52.855522 85.39328 727.96851 727.96851
153.48634 -59.770912 690.27856 690.27856
112.9814 88.850922 705.98865 705.98865
168.48639 34.440506 685.78577 685.78577
101.31078 -57.773682 668.38818 668.38818
124.26599 95.129715 730.98688 730.98688
41.451599 38.611923 678.71741 678.71741
134.82684 87.579041 716.57843 716.57843
40.549881 -47.125481 684.84729 684.84729
43.474209 6.3607101 667.75415 667.75415
91.180786 41.999039 659.6767 659.6767
99.486649 -38.367588 657.65466 657.65466
179.26622 -16.752106 691.38062 691.38062
33.372852 55.919769 700.66644 700.66644
151.92744 -76.358925 711.62219 711.62219
76.196465 -5.762413 653.04541 653.04541
152.75784 65.375 695.75317 695.75317
142.29587 9.900795 659.92761 659.92761
65.012177 65.718979 683.24023 683.24023
24.789618 -41.367298 698.69556 698.69556
165.44633 -66.769363 714.52283 714.52283
80.863235 -59.603962 672.01825 672.01825
98.875237 -90.074127 706.57898 706.57898
45.762085 59.13652 690.32489 690.32489
30.82155 54.064377 702.13159 702.13159
137.47105 -60.891594 680.08484 680.08484
120.12637 29.545944 656.60852 656.60852
109.70732 -20.238075 652.55164 652.55164
148.28047 -59.217705 685.48444 685.48444
161.2426 -35.938103 679.58838 679.58838
165.01968 -64.701569 710.17352 710.17352
94.229332 -53.99535 666.02856 666.02856
135.10423 72.820572 691.13696 691.13696
116.04597 -52.239914 666.25323 666.25323
171.7215 7.7272797 680.74457 680.74457
86.222076 -7.3488998 651.22668 651.22668
137.07774 -3.7155838 657.20215 657.20215
139.35429 25.087463 661.55872 661.55872
97.7435 -4.8524323 650.14331 650.14331
33.718102 27.709373 680.43781 680.43781
24.928928 -55.993683 714.94232 714.94232
134.21494 -92.250908 732.13641 732.13641
90.904358 58.303482 669.26605 669.26605
154.46976 30.904312 672.0387 672.0387
166.26918 62.416672 708.617 708.617
113.62735 -24.163254 653.92487 653.92487
31.152571 -61.284176 711.21497 711.21497
173.37512 -28.909706 688.51569 688.51569
166.2932 55.570374 699.82886 699.82886
143.37848 62.441589 685.04346 685.04346
159.88933 -1.6803589 669.93475 669.93475
168.76321 20.869804 680.45813 680.45813
15.591977 -11.214684 697.56415 697.56415
25.574053 58.826614 718.37396 718.37396
119.94256 6.3254929 652.21307 652.21307
164.71059 -8.1713943 674.19916 674.19916
62.873875 -47.061913 669.95734 669.95734
31.035114 40.806885 690.17822 690.17822
92.81295 18.498566 651.98901 651.98901
96.188362 -36.995392 657.17322 657.17322
141.25122 58.137924 679.86926 679.86926
23.963829 -55.593304 716.41602 716.41602
151.81505 -82.001602 725.6908 725.6908
86.016022 -83.031807 696.05402 696.05402
181.23436 6.1308289 692.00525 692.00525
116.17758 -41.884869 660.64709 660.64709
146.19391 -28.052589 665.86218 665.86218
8.9551744 13.463821 710.89032 710.89032
101.39952 41.121918 658.85712 658.85712
90.960297 -87.751686 702.90515 702.90515
88.722328 -12.951614 651.48572 651.48572
180.54021 42.693756 708.88409 708.88409
11.691949 32.100159 715.77625 715.77625
134.1777 -56.165745 674.65216 674.65216
127.21844 -21.949501 656.31238 656.31238
77.944855 -58.688278 672.09454 672.09454
127.87217 34.060974 660.20581 660.20581
76.060226 48.215271 665.72559 665.72559
163.2827 -3.2977371 672.64093 672.64093
161.83954 -35.210129 679.74249 679.74249
97.807976 72.60788 681.2738 681.2738
59.428616 -54.80859 676.85645 676.85645
196.55597 -7.337326 725.03784 725.03784
183.46387 22.161247 699.5752 699.5752
64.598351 58.683304 677.17834 677.17834
74.106339 67.741837 681.14825 681.14825
143.26904 -73.43013 697.69507 697.69507
75.284981 -2.4246902 653.13263 653.13263
20.861097 -28.243423 695.7843 695.7843
154.90311 -57.768833 689.5979 689.5979
167.48543 -19.075424 678.71295 678.71295
150.17241 -8.9532394 663.96179 663.96179
108.54025 67.79631 676.98816 676.98816
130.79659 -83.484619 704.37225 704.37225
72.959526 32.953613 659.54077 659.54077
100.53743 51.021713 663.99713 663.99713
28.106955 13.880898 681.89191 681.89191
173.96483 -23.548439 686.95496 686.95496
60.161983 73.014877 694.48639 694.48639
168.2729 13.971222 678.28101 678.28101
61.392056 1.6591873 657.76837 657.76837
132.93018 -91.569939 726.96631 726.96631
77.480301 -7.8859711 652.88831 652.88831
33.746685 31.739105 682.15363 682.15363
160.62646 13.970947 671.71051 671.71051
41.914921 79.841034 734.1402 734.1402
97.528419 -71.537476 680.16962 680.16962
21.57761 -53.734016 718.97449 718.97449
9.7579403 -16.288445 710.11194 710.11194
24.368881 24.130669 689.19171 689.19171
52.104366 70.348114 697.49139 697.49139
171.36601 -56.438026 708.50732 708.50732
36.638737 51.845016 692.5766 692.5766
21.985106 -30.521355 695.39117 695.39117
193.13608 -25.742584 724.2514 724.2514
17.705704 -20.802818 697.13324 697.13324
68.899803 54.518585 672.15076 672.15076
107.27077 90.692688 708.50336 708.50336
51.571739 58.18158 684.65778 684.65778
70.497063 95.176208 741.56989 741.56989
84.578064 31.619232 656.3924 656.3924
179.29306 1.6063538 689.08997 689.08997
97.508171 73.864685 682.63684 682.63684
126.62434 -46.023018 665.30627 665.30627
9.8738298 9.524765 707.73236 707.73236
132.06705 43.986206 666.11365 666.11365
96.727303 85.532104 698.29364 698.29364
31.656412 62.382095 712.08392 712.08392
13.270908 0.53278351 700.22272 700.22272
127.56541 -74.626114 689.41046 689.41046
167.01424 -52.386547 697.41919 697.41919
90.159195 -32.434761 655.91949 655.91949
48.264702 -60.645145 689.62097 689.62097
199.81847 2.3289108 744.44574 744.44574
181.33731 -29.492622 699.85596 699.85596
126.36929 -32.944588 659.33954 659.33954
22.542923 32.378235 695.66724 695.66724
119.70712 37.578613 659.44904 659.44904
20.264751 -34.875664 700.74579 700.74579
195.25383 -1.558136 719.59802 719.59802
118.28612 0.37877655 651.68683 651.68683
121.66367 -73.775764 686.0639 686.0639
133.63803 13.554207 656.80792 656.80792
66.251083 42.174347 665.84338 665.84338
184.92763 -12.330826 698.66534 698.66534
104.18167 -18.93644 651.89838 651.89838
150.9507 57.088562 685.6189 685.6189
140.68163 -44.422657 670.17749 670.17749
14.843424 7.2602005 698.08038 698.08038
53.733486 -49.354332 676.35516 676.35516
151.13339 -20.908539 666.6441 666.6441
31.937683 36.108063 686.25262 686.25262
81.940536 3.8640137 651.72015 651.72015
120.55235 20.603027 654.32806 654.32806
105.70509 73.380951 682.30444 682.30444
6.0585089 -28.579567 731.07373 731.07373
87.344765 58.75856 670.07959 670.07959
165.12437 -57.688454 700.69629 700.69629
8.9291582 26.118538 718.00116 718.00116
171.19144 12.151825 680.8327 680.8327
142.88965 -12.110069 660.48004 660.48004
81.323418 -8.9315567 652.16638 652.16638
13.175787 -21.25322 705.16858 705.16858
37.847378 -6.6279602 671.94153 671.94153
164.95201 36.69429 683.40594 683.40594
129.11194 -7.4727173 654.6236 654.6236
194.76945 -20.046356 725.16266 725.16266
106.24869 -49.672741 663.43457 663.43457
156.6996 -76.982162 720.69299 720.69299
67.987473 23.180641 658.14221 658.14221
89.498543 40.646942 659.23907 659.23907
115.82942 -64.300453 675.0675 675.0675
37.793453 46.109879 686.72107 686.72107
165.84532 59.606094 704.04889 704.04889
41.760834 -62.999557 698.62634 698.62634
158.47099 -56.949703 692.22565 692.22565
186.62347 1.2175446 700.05109 700.05109
98.597771 40.333176 658.50537 658.50537
89.04747 -46.585262 662.19421 662.19421
98.020088 -96.182014 722.70349 722.70349
62.510693 -50.966702 672.56006 672.56006
106.39456 -48.465939 662.76373 662.76373
80.411736 22.804497 654.62573 654.62573
87.178955 -10.158577 651.34692 651.34692
11.174578 -36.581635 722.2182 722.2182
82.832443 -40.624268 660.25067 660.25067
180.18071 23.779999 695.17694 695.17694
123.81007 43.961105 663.39453 663.39453
34.115105 -60.829079 705.73938 705.73938
4.8937726 16.723526 724.01678 724.01678
175.96596 25.444923 690.15247 690.15247
177.05876 24.821068 691.29852 691.29852
17.564661 42.8815 713.04608 713.04608
87.095474 1.4145737 650.84619 650.84619
